ply
format ascii 1.0
element vertex 1024
property float x
property float y
property float z
property uchar red
property uchar green
property uchar blue
end_header
0.631766 0.008457 0.035166 255 220 0
0.584436 -0.055837 0.046673 255 220 0
0.628040 0.002074 0.034293 255 220 0
0.571922 0.049894 0.052765 255 220 0
0.642134 0.079955 0.079904 255 220 0
0.606205 -0.023589 0.083152 255 220 0
0.570225 0.043840 0.059235 255 220 0
0.599015 0.068365 0.094865 255 220 0
0.616142 0.097441 0.073496 255 220 0
0.621044 -0.011806 0.078868 255 220 0
0.593883 -0.048240 0.040252 255 220 0
0.565087 0.002111 0.074382 255 220 0
0.604261 0.091161 0.046526 255 220 0
0.627014 0.075922 0.030549 255 220 0
0.566287 0.032033 0.054336 255 220 0
0.609407 0.066280 0.019765 255 220 0
0.621819 -0.019384 0.065596 255 220 0
0.574792 -0.028619 0.081002 255 220 0
0.589828 -0.034884 0.019982 255 220 0
0.591797 -0.020378 0.015551 255 220 0
0.568846 0.038543 0.043365 255 220 0
0.633304 0.091039 0.049325 255 220 0
0.627766 0.007440 0.087829 255 220 0
0.634734 0.000633 0.067594 255 220 0
0.631969 -0.004951 0.050970 255 220 0
0.562572 0.017851 0.041625 255 220 0
0.612633 0.022552 0.014485 255 220 0
0.561008 -0.046961 0.061090 255 220 0
0.568167 0.038015 0.056291 255 220 0
0.579610 -0.007211 0.090658 255 220 0
0.586168 -0.031069 0.016085 255 220 0
0.595199 0.023334 0.101069 255 220 0
0.576641 0.061510 0.059629 255 220 0
0.569811 0.041227 0.061735 255 220 0
0.648971 0.045677 0.071167 255 220 0
0.645195 0.060257 0.044398 255 220 0
0.623872 0.096943 0.053521 255 220 0
0.593839 0.006925 0.099841 255 220 0
0.545825 -0.055110 0.036892 255 220 0
0.554836 -0.061375 0.025795 255 220 0
0.633465 0.063635 0.030366 255 220 0
0.632021 -0.001736 0.044983 255 220 0
0.592756 0.042756 0.013446 255 220 0
0.644002 0.052598 0.040310 255 220 0
0.582115 0.072449 0.055943 255 220 0
0.633466 0.011633 0.083785 255 220 0
0.581220 0.028962 0.014437 255 220 0
0.591385 0.081632 0.076223 255 220 0
0.610339 0.025606 0.102369 255 220 0
0.600561 0.066740 0.096243 255 220 0
0.639555 0.051329 0.033242 255 220 0
0.605845 -0.039127 0.055747 255 220 0
0.632865 0.081353 0.088629 255 220 0
0.644312 0.077920 0.052221 255 220 0
0.626598 -0.007684 0.074767 255 220 0
0.611097 0.019994 0.014177 255 220 0
0.564770 0.005325 0.072781 255 220 0
0.542152 -0.039951 0.023620 255 220 0
0.551853 -0.046294 0.011712 255 220 0
0.585769 0.031883 0.012892 255 220 0
0.592210 0.035826 0.099038 255 220 0
0.608589 0.053258 0.101007 255 220 0
0.567411 -0.005351 0.015729 255 220 0
0.614709 -0.029662 0.059387 255 220 0
0.645509 0.075867 0.053612 255 220 0
0.617236 0.077419 0.027406 255 220 0
0.578710 -0.042552 0.074672 255 220 0
0.556610 -0.063409 0.032854 255 220 0
0.553280 -0.025780 0.016541 255 220 0
0.638075 0.078273 0.041899 255 220 0
0.547012 -0.038047 0.015645 255 220 0
0.583965 0.041622 0.017133 255 220 0
0.638695 0.067609 0.037173 255 220 0
0.633425 -0.002186 0.065819 255 220 0
0.574293 -0.058558 0.029108 255 220 0
0.641415 0.051903 0.086245 255 220 0
0.613242 -0.019616 0.080151 255 220 0
0.642071 0.032084 0.081712 255 220 0
0.586850 -0.016846 0.092213 255 220 0
0.583954 0.047019 0.089922 255 220 0
0.566012 0.024243 0.034187 255 220 0
0.615077 0.087657 0.035857 255 220 0
0.621154 0.068701 0.024055 255 220 0
0.628358 0.097137 0.056907 255 220 0
0.582786 0.072618 0.051247 255 220 0
0.617409 0.066213 0.098650 255 220 0
0.584492 -0.045380 0.071695 255 220 0
0.561759 -0.053629 0.014782 255 220 0
0.574366 -0.019511 0.011381 255 220 0
0.583689 0.051097 0.022414 255 220 0
0.576900 0.054891 0.074182 255 220 0
0.610338 -0.033446 0.046267 255 220 0
0.591537 -0.017120 0.014549 255 220 0
0.590744 -0.050809 0.039860 255 220 0
0.580613 0.035445 0.017088 255 220 0
0.611275 0.031329 0.013106 255 220 0
0.585507 -0.032941 0.083154 255 220 0
0.599886 -0.028981 0.024737 255 220 0
0.558568 -0.047334 0.058576 255 220 0
0.600194 0.016995 0.101596 255 220 0
0.641406 0.018538 0.074573 255 220 0
0.576576 0.025693 0.016871 255 220 0
0.646570 0.031057 0.050202 255 220 0
0.616637 0.002469 0.094277 255 220 0
0.636129 0.000893 0.059099 255 220 0
0.579366 0.067393 0.060975 255 220 0
0.587754 -0.048974 0.064435 255 220 0
0.596752 -0.035968 0.026668 255 220 0
0.592250 -0.004594 0.012466 255 220 0
0.554401 -0.029251 0.056767 255 220 0
0.611367 0.074549 0.096297 255 220 0
0.570197 -0.005394 0.014207 255 220 0
0.596628 0.016950 0.101148 255 220 0
0.578401 0.054584 0.032902 255 220 0
0.596190 -0.047640 0.051723 255 220 0
0.566536 0.033070 0.049048 255 220 0
0.570638 0.032122 0.075212 255 220 0
0.586009 -0.004996 0.095071 255 220 0
0.621283 0.077097 0.095100 255 220 0
0.564045 -0.031029 0.010797 255 220 0
0.613665 -0.001844 0.094035 255 220 0
0.607638 0.043293 0.012983 255 220 0
0.647451 0.038023 0.049750 255 220 0
0.642449 0.016543 0.051514 255 220 0
0.640800 0.044687 0.034496 255 220 0
0.588189 -0.007272 0.012006 255 220 0
0.573091 0.043954 0.073072 255 220 0
0.580541 0.045145 0.022075 255 220 0
0.622475 0.053649 0.019871 255 220 0
0.610842 -0.024400 0.077296 255 220 0
0.567538 0.030937 0.064639 255 220 0
0.612004 0.002694 0.019535 255 220 0
0.647939 0.043176 0.050532 255 220 0
0.574345 0.024546 0.084061 255 220 0
0.610229 0.017423 0.014242 255 220 0
0.606095 0.086134 0.036346 255 220 0
0.635664 0.003156 0.069633 255 220 0
0.551234 -0.021976 0.022657 255 220 0
0.624087 0.035557 0.099202 255 220 0
0.648268 0.041668 0.072020 255 220 0
0.602838 -0.023880 0.024290 255 220 0
0.611016 0.070287 0.022096 255 220 0
0.630158 -0.003802 0.043347 255 220 0
0.577150 -0.035493 0.078888 255 220 0
0.634535 0.086314 0.044491 255 220 0
0.636272 0.020885 0.085552 255 220 0
0.544433 -0.053956 0.035031 255 220 0
0.630209 0.091152 0.082479 255 220 0
0.568721 0.016644 0.077512 255 220 0
0.559507 0.000874 0.057808 255 220 0
0.602704 0.029693 0.010901 255 220 0
0.640274 0.010028 0.065122 255 220 0
0.646442 0.078125 0.069207 255 220 0
0.587638 0.080581 0.061395 255 220 0
0.549500 -0.025216 0.040825 255 220 0
0.637509 0.031043 0.032413 255 220 0
0.583917 0.071196 0.075204 255 220 0
0.617866 -0.012441 0.082286 255 220 0
0.609446 0.076158 0.025972 255 220 0
0.558553 -0.044941 0.010648 255 220 0
0.614218 0.034727 0.014222 255 220 0
0.573306 0.044847 0.034581 255 220 0
0.615930 -0.027487 0.062759 255 220 0
0.586275 0.063950 0.085590 255 220 0
0.586461 0.045916 0.017345 255 220 0
0.576233 0.003034 0.088495 255 220 0
0.568702 0.036083 0.063573 255 220 0
0.636538 0.041223 0.029381 255 220 0
0.619146 -0.011060 0.082123 255 220 0
0.647957 0.064522 0.053731 255 220 0
0.581783 -0.056642 0.037457 255 220 0
0.585931 -0.027023 0.087136 255 220 0
0.599977 -0.001940 0.014393 255 220 0
0.579070 -0.058574 0.046575 255 220 0
0.616775 0.097627 0.054699 255 220 0
0.622484 0.004822 0.091215 255 220 0
0.595582 -0.045715 0.037655 255 220 0
0.592500 0.030558 0.099796 255 220 0
0.545278 -0.051069 0.040150 255 220 0
0.642337 0.047691 0.036883 255 220 0
0.552680 -0.016858 0.026094 255 220 0
0.634923 -0.000985 0.055003 255 220 0
0.607733 -0.025183 0.079866 255 220 0
0.541145 -0.048790 0.029346 255 220 0
0.636001 0.034773 0.029670 255 220 0
0.628078 0.097437 0.057519 255 220 0
0.623402 0.077522 0.094499 255 220 0
0.560661 -0.033831 0.066145 255 220 0
0.569332 -0.062332 0.042088 255 220 0
0.637522 0.007437 0.071270 255 220 0
0.572468 -0.023832 0.011227 255 220 0
0.621822 0.057389 0.099129 255 220 0
0.650091 0.047301 0.065723 255 220 0
0.549459 -0.043750 0.049080 255 220 0
0.591471 0.040172 0.013068 255 220 0
0.587514 0.048510 0.092986 255 220 0
0.606871 0.065721 0.019445 255 220 0
0.615252 -0.022584 0.073779 255 220 0
0.643362 0.026566 0.044034 255 220 0
0.610651 0.071239 0.022657 255 220 0
0.640517 0.015978 0.074237 255 220 0
0.607750 0.031807 0.011979 255 220 0
0.581933 -0.046078 0.071602 255 220 0
0.554340 -0.010914 0.046193 255 220 0
0.634460 0.034548 0.028107 255 220 0
0.562573 -0.016805 0.071713 255 220 0
0.633648 0.094776 0.073871 255 220 0
0.623241 -0.009112 0.078720 255 220 0
0.605740 0.036877 0.102959 255 220 0
0.570485 -0.037046 0.073975 255 220 0
0.551916 -0.035527 0.012808 255 220 0
0.595002 -0.041269 0.070145 255 220 0
0.625787 0.036657 0.020639 255 220 0
0.560942 -0.055851 0.054817 255 220 0
0.576012 0.026362 0.017617 255 220 0
0.614037 0.051609 0.015864 255 220 0
0.587432 0.079478 0.053437 255 220 0
0.646164 0.060760 0.046832 255 220 0
0.644194 0.029378 0.076152 255 220 0
0.544428 -0.044888 0.016903 255 220 0
0.593903 0.064257 0.022667 255 220 0
0.631193 0.073987 0.092774 255 220 0
0.553188 -0.013620 0.031048 255 220 0
0.642130 0.061361 0.085232 255 220 0
0.628309 0.007175 0.031554 255 220 0
0.547062 -0.033923 0.018167 255 220 0
0.598233 -0.021940 0.019795 255 220 0
0.602164 0.035981 0.011325 255 220 0
0.557160 -0.006625 0.027488 255 220 0
0.583435 -0.022190 0.088740 255 220 0
0.638115 0.007021 0.068507 255 220 0
0.588646 -0.014730 0.093560 255 220 0
0.605782 0.038998 0.102806 255 220 0
0.636629 0.072648 0.089365 255 220 0
0.561636 0.009447 0.060000 255 220 0
0.610357 0.047633 0.101899 255 220 0
0.547899 -0.041972 0.013697 255 220 0
0.634195 0.091401 0.079248 255 220 0
0.558628 -0.047411 0.011191 255 220 0
0.546440 -0.034207 0.039291 255 220 0
0.559602 -0.049771 0.058175 255 220 0
0.581881 0.017250 0.012075 255 220 0
0.561324 0.010326 0.057852 255 220 0
0.561255 -0.021980 0.069301 255 220 0
0.626624 0.010764 0.090913 255 220 0
0.543118 -0.038724 0.021809 255 220 0
0.632815 0.079258 0.036790 255 220 0
0.617198 0.095962 0.050050 255 220 0
0.599315 -0.034765 0.075680 255 220 0
0.544286 -0.034216 0.025414 255 220 0
0.574841 -0.060322 0.045791 255 220 0
0.623207 0.004560 0.027657 255 220 0
0.618800 -0.019480 0.072416 255 220 0
0.598863 0.073931 0.027397 255 220 0
0.603862 0.012160 0.012666 255 220 0
0.559728 -0.055028 0.015353 255 220 0
0.644101 0.021714 0.050853 255 220 0
0.645663 0.076738 0.054924 255 220 0
0.611597 0.097291 0.068766 255 220 0
0.580879 0.064344 0.075658 255 220 0
0.570280 -0.047122 0.014485 255 220 0
0.637005 0.074585 0.038434 255 220 0
0.608904 0.033791 0.012345 255 220 0
0.646707 0.059560 0.047923 255 220 0
0.617635 0.030228 0.016130 255 220 0
0.577544 0.031166 0.018055 255 220 0
0.552167 -0.034406 0.013066 255 220 0
0.613014 0.092272 0.042960 255 220 0
0.627997 0.070781 0.028768 255 220 0
0.541314 -0.049827 0.028094 255 220 0
0.562931 -0.003871 0.071078 255 220 0
0.646282 0.071701 0.052556 255 220 0
0.644397 0.038615 0.079853 255 220 0
0.576237 0.058379 0.065806 255 220 0
0.641515 0.032966 0.037732 255 220 0
0.570319 -0.021957 0.079772 255 220 0
0.639644 0.007662 0.059622 255 220 0
0.581241 0.035641 0.016670 255 220 0
0.646354 0.062520 0.047905 255 220 0
0.572863 0.045889 0.069646 255 220 0
0.635678 0.022564 0.087095 255 220 0
0.549060 -0.057715 0.039348 255 220 0
0.544145 -0.044761 0.017301 255 220 0
0.606368 0.073951 0.024724 255 220 0
0.633543 0.054007 0.093865 255 220 0
0.553378 -0.040258 0.055122 255 220 0
0.647788 0.041146 0.050269 255 220 0
0.624921 0.060063 0.097920 255 220 0
0.579565 0.029469 0.015702 255 220 0
0.568744 -0.014312 0.079948 255 220 0
0.650264 0.051069 0.064310 255 220 0
0.573179 -0.047511 0.069085 255 220 0
0.631871 0.067666 0.093828 255 220 0
0.601602 0.079839 0.031498 255 220 0
0.567091 -0.033111 0.072974 255 220 0
0.542483 -0.042155 0.034621 255 220 0
0.570071 -0.005895 0.082161 255 220 0
0.611289 0.088236 0.086691 255 220 0
0.590018 -0.014315 0.094081 255 220 0
0.594773 -0.000176 0.012388 255 220 0
0.548310 -0.028426 0.021380 255 220 0
0.593809 -0.016696 0.015443 255 220 0
0.633804 0.015416 0.033950 255 220 0
0.613789 -0.021934 0.076710 255 220 0
0.641981 0.085716 0.055267 255 220 0
0.641011 0.010665 0.058919 255 220 0
0.632224 0.082452 0.088387 255 220 0
0.602083 0.009273 0.100815 255 220 0
0.599739 -0.044785 0.051176 255 220 0
0.580451 0.025042 0.090961 255 220 0
0.602632 0.070352 0.095793 255 220 0
0.609222 0.049344 0.101646 255 220 0
0.581465 0.037360 0.017198 255 220 0
0.609867 -0.024731 0.078059 255 220 0
0.633982 0.014469 0.085024 255 220 0
0.580100 0.010655 0.091780 255 220 0
0.591299 -0.030544 0.084852 255 220 0
0.604357 -0.006707 0.017976 255 220 0
0.561643 0.013346 0.056194 255 220 0
0.631869 0.066150 0.094057 255 220 0
0.607439 -0.036565 0.060940 255 220 0
0.611543 0.090734 0.083726 255 220 0
0.540856 -0.044365 0.025585 255 220 0
0.576602 0.057159 0.041135 255 220 0
0.592263 0.043963 0.013945 255 220 0
0.594135 0.082309 0.042208 255 220 0
0.575978 -0.009366 0.087460 255 220 0
0.555800 -0.006297 0.033937 255 220 0
0.580294 0.066301 0.044957 255 220 0
0.567443 -0.023556 0.076524 255 220 0
0.602898 0.070894 0.095676 255 220 0
0.554420 -0.025904 0.015504 255 220 0
0.630719 0.011770 0.087359 255 220 0
0.563752 -0.005122 0.073068 255 220 0
0.596728 0.088436 0.052911 255 220 0
0.554337 -0.010959 0.046245 255 220 0
0.566623 -0.011391 0.014381 255 220 0
0.604722 0.060920 0.099069 255 220 0
0.582421 0.018272 0.093434 255 220 0
0.595675 -0.001544 0.098881 255 220 0
0.650072 0.056760 0.066114 255 220 0
0.612368 0.097516 0.069054 255 220 0
0.639272 0.007048 0.056600 255 220 0
0.648341 0.054174 0.052138 255 220 0
0.638281 0.028927 0.086209 255 220 0
0.638533 0.032966 0.087106 255 220 0
0.548094 -0.029324 0.039895 255 220 0
0.645988 0.060464 0.046297 255 220 0
0.641294 0.023089 0.078508 255 220 0
0.541206 -0.046959 0.031248 255 220 0
0.632848 0.082777 0.087810 255 220 0
0.574745 0.042424 0.078626 255 220 0
0.579471 0.034130 0.017513 255 220 0
0.610916 -0.023749 0.078033 255 220 0
0.615941 0.041250 0.015137 255 220 0
0.635429 0.019532 0.085994 255 220 0
0.641441 0.023352 0.041891 255 220 0
0.625139 0.082932 0.091247 255 220 0
0.601100 -0.033592 0.029425 255 220 0
0.545874 -0.041709 0.042401 255 220 0
0.565923 -0.055378 0.058819 255 220 0
0.620423 0.052814 0.099934 255 220 0
0.636129 0.036118 0.090468 255 220 0
0.560044 -0.060384 0.022081 255 220 0
0.628604 0.093938 0.049982 255 220 0
0.579740 -0.027468 0.084547 255 220 0
0.563622 0.008447 0.068280 255 220 0
0.569052 0.018510 0.022511 255 220 0
0.571379 0.020989 0.020547 255 220 0
0.595157 0.088281 0.062767 255 220 0
0.565221 0.028779 0.051293 255 220 0
0.609484 0.095871 0.054292 255 220 0
0.557180 -0.059194 0.019994 255 220 0
0.643707 0.031493 0.042270 255 220 0
0.580173 0.068785 0.062913 255 220 0
0.564014 -0.008778 0.016808 255 220 0
0.582850 -0.032283 0.083083 255 220 0
0.640331 0.053592 0.087635 255 220 0
0.580263 0.069317 0.059706 255 220 0
0.608152 0.094618 0.073424 255 220 0
0.602420 0.092166 0.071919 255 220 0
0.603334 0.019351 0.011389 255 220 0
0.560302 -0.011407 0.066580 255 220 0
0.587869 0.039871 0.014255 255 220 0
0.562720 -0.008559 0.071490 255 220 0
0.586528 0.032873 0.012822 255 220 0
0.580989 0.057488 0.081665 255 220 0
0.646704 0.070512 0.074621 255 220 0
0.583035 -0.019999 0.012388 255 220 0
0.564906 -0.062165 0.028177 255 220 0
0.566100 -0.041536 0.011223 255 220 0
0.603310 0.078737 0.091502 255 220 0
0.573624 -0.060817 0.038138 255 220 0
0.576126 0.010278 0.013852 255 220 0
0.569186 0.035991 0.037410 255 220 0
0.628199 0.043841 0.097301 255 220 0
0.624051 -0.004161 0.082755 255 220 0
0.635035 0.045734 0.027849 255 220 0
0.563336 0.007191 0.068002 255 220 0
0.625153 -0.015237 0.064343 255 220 0
0.591428 0.073861 0.085237 255 220 0
0.609129 0.062864 0.018180 255 220 0
0.614492 0.047248 0.101656 255 220 0
0.594004 0.000027 0.012190 255 220 0
0.561784 0.016646 0.049181 255 220 0
0.627345 0.091361 0.083647 255 220 0
0.570691 0.041704 0.065444 255 220 0
0.572423 0.051074 0.051014 255 220 0
0.622765 -0.019281 0.061848 255 220 0
0.541774 -0.049810 0.031606 255 220 0
0.642843 0.059022 0.039664 255 220 0
0.631571 0.048863 0.025157 255 220 0
0.569411 0.041637 0.047095 255 220 0
0.610780 -0.028973 0.070783 255 220 0
0.631884 0.009646 0.084483 255 220 0
0.612946 -0.010768 0.026030 255 220 0
0.634836 0.089905 0.049377 255 220 0
0.588459 -0.005028 0.011854 255 220 0
0.564158 -0.055642 0.017353 255 220 0
0.564269 -0.011882 0.015463 255 220 0
0.635830 0.010642 0.079135 255 220 0
0.641144 0.061968 0.086452 255 220 0
0.633827 0.001903 0.072714 255 220 0
0.576212 0.058809 0.064836 255 220 0
0.585087 -0.023661 0.013597 255 220 0
0.552547 -0.023490 0.050056 255 220 0
0.606484 0.024698 0.011813 255 220 0
0.640300 0.018843 0.042736 255 220 0
0.610414 0.064424 0.099144 255 220 0
0.576708 -0.001790 0.012452 255 220 0
0.587854 0.029597 0.097014 255 220 0
0.601504 0.036440 0.011337 255 220 0
0.559764 0.007378 0.052672 255 220 0
0.587688 0.079380 0.051654 255 220 0
0.575935 0.057266 0.066316 255 220 0
0.571818 -0.060976 0.033532 255 220 0
0.581412 -0.057184 0.039358 255 220 0
0.643344 0.081208 0.076743 255 220 0
0.628848 0.059191 0.025266 255 220 0
0.548865 -0.057659 0.021659 255 220 0
0.576446 0.042398 0.025671 255 220 0
0.608368 0.019406 0.013053 255 220 0
0.626426 0.018106 0.025061 255 220 0
0.639265 0.015627 0.043066 255 220 0
0.577879 0.012960 0.013312 255 220 0
0.603210 -0.041719 0.051782 255 220 0
0.578391 -0.058039 0.034649 255 220 0
0.609460 -0.035441 0.050620 255 220 0
0.578806 -0.057976 0.052045 255 220 0
0.638815 0.072714 0.039627 255 220 0
0.567724 0.033050 0.062785 255 220 0
0.645259 0.023036 0.064153 255 220 0
0.637066 0.075120 0.038789 255 220 0
0.627758 0.034770 0.097071 255 220 0
0.626031 -0.002312 0.081952 255 220 0
0.561280 -0.055256 0.015938 255 220 0
0.636377 0.093710 0.071915 255 220 0
0.566311 0.032165 0.054081 255 220 0
0.616482 -0.027922 0.055907 255 220 0
0.546158 -0.042772 0.043289 255 220 0
0.601124 -0.003763 0.098239 255 220 0
0.571482 0.012660 0.017469 255 220 0
0.594458 -0.028380 0.085891 255 220 0
0.575653 -0.044444 0.015891 255 220 0
0.616877 0.066214 0.098704 255 220 0
0.614583 0.077056 0.026738 255 220 0
0.551987 -0.017140 0.041687 255 220 0
0.589542 0.040619 0.096458 255 220 0
0.553249 -0.012561 0.035595 255 220 0
0.569046 -0.061931 0.032871 255 220 0
0.588965 -0.034571 0.019226 255 220 0
0.623486 0.076922 0.029192 255 220 0
0.547814 -0.039522 0.045628 255 220 0
0.644514 0.022057 0.052269 255 220 0
0.609179 0.079251 0.028393 255 220 0
0.597870 0.089268 0.052729 255 220 0
0.617862 0.044690 0.016231 255 220 0
0.571548 0.047753 0.047072 255 220 0
0.602663 -0.032188 0.029993 255 220 0
0.575822 0.033366 0.020928 255 220 0
0.570006 0.044165 0.050495 255 220 0
0.567377 -0.030675 0.010801 255 220 0
0.620661 -0.015487 0.074907 255 220 0
0.613982 0.008082 0.097827 255 220 0
0.648888 0.066552 0.059821 255 220 0
0.583072 0.007207 0.094274 255 220 0
0.572741 0.041687 0.032564 255 220 0
0.557055 -0.002755 0.034522 255 220 0
0.554607 -0.061125 0.025180 255 220 0
0.640116 0.008768 0.060951 255 220 0
0.586544 -0.022873 0.089522 255 220 0
0.546592 -0.040966 0.043627 255 220 0
0.570001 0.014567 0.019574 255 220 0
0.585872 0.015843 0.096271 255 220 0
0.556618 -0.050676 0.054854 255 220 0
0.618621 -0.006531 0.086837 255 220 0
0.635228 0.061797 0.092283 255 220 0
0.628319 0.062678 0.096311 255 220 0
0.591824 -0.050867 0.044744 255 220 0
0.569816 0.042060 0.060217 255 220 0
0.602843 0.049735 0.013939 255 220 0
0.581122 0.050337 0.024785 255 220 0
0.621540 0.015783 0.021861 255 220 0
0.639414 0.010813 0.048565 255 220 0
0.605808 0.007649 0.014477 255 220 0
0.549107 -0.023621 0.027641 255 220 0
0.594271 -0.044171 0.032364 255 220 0
0.590681 0.078363 0.040923 255 220 0
0.592842 -0.003231 0.012407 255 220 0
0.610526 0.027059 0.013024 255 220 0
0.591957 0.083973 0.072164 255 220 0
0.578772 -0.018284 0.087598 255 220 0
0.639694 0.008422 0.063866 255 220 0
0.612798 -0.032062 0.057144 255 220 0
0.634867 0.000837 0.049255 255 220 0
0.578456 0.055298 0.033544 255 220 0
0.565335 0.003337 0.020561 255 220 0
0.571926 -0.043433 0.013691 255 220 0
0.599818 0.013067 0.011362 255 220 0
0.622963 -0.004036 0.032152 255 220 0
0.625990 0.053777 0.021976 255 220 0
0.614130 0.048368 0.101566 255 220 0
0.561814 -0.029727 0.068674 255 220 0
0.633314 0.086225 0.043065 255 220 0
0.590768 -0.014293 0.094250 255 220 0
0.630640 0.077827 0.091671 255 220 0
0.596666 0.047669 0.099110 255 220 0
0.616546 0.045160 0.015732 255 220 0
0.598006 0.090427 0.059476 255 220 0
0.614999 -0.028203 0.063775 255 220 0
0.599791 0.081929 0.086463 255 220 0
0.614706 -0.023573 0.038126 255 220 0
0.624501 0.026300 0.097755 255 220 0
0.574381 0.031371 0.021704 255 220 0
0.634246 0.007222 0.078633 255 220 0
0.590151 0.063565 0.090088 255 220 0
0.563422 -0.011006 0.073058 255 220 0
0.618912 0.005297 0.094122 255 220 0
0.606066 -0.017707 0.023710 255 220 0
0.602058 0.036204 0.011343 255 220 0
0.595569 0.046361 0.098872 255 220 0
0.574345 -0.030795 0.011698 255 220 0
0.611753 -0.014609 0.086659 255 220 0
0.636506 0.001536 0.057964 255 220 0
0.583255 0.055525 0.085985 255 220 0
0.628928 -0.005950 0.043415 255 220 0
0.603363 -0.041126 0.047311 255 220 0
0.573832 0.016028 0.084999 255 220 0
0.573289 0.013564 0.016201 255 220 0
0.610715 -0.033430 0.047648 255 220 0
0.583798 -0.034480 0.016062 255 220 0
0.589120 0.017179 0.098353 255 220 0
0.574307 -0.051361 0.066136 255 220 0
0.601009 0.017592 0.011032 255 220 0
0.643542 0.036592 0.080775 255 220 0
0.591996 -0.035812 0.022142 255 220 0
0.566936 0.023736 0.069770 255 220 0
0.558540 -0.055839 0.052773 255 220 0
0.576597 0.056921 0.040746 255 220 0
0.592011 -0.008344 0.012968 255 220 0
0.603470 0.046862 0.101432 255 220 0
0.561006 -0.060005 0.050285 255 220 0
0.574241 0.011970 0.085966 255 220 0
0.630396 0.097725 0.067792 255 220 0
0.594157 0.081557 0.080932 255 220 0
0.583350 -0.029881 0.084731 255 220 0
0.589520 -0.051721 0.055048 255 220 0
0.593794 -0.004282 0.097968 255 220 0
0.582271 0.068014 0.041655 255 220 0
0.628435 0.098572 0.066008 255 220 0
0.634095 0.096008 0.068087 255 220 0
0.575253 0.047161 0.032083 255 220 0
0.603148 0.016049 0.011757 255 220 0
0.613580 -0.009791 0.026091 255 220 0
0.582008 -0.010698 0.091654 255 220 0
0.575351 0.054407 0.068242 255 220 0
0.547307 -0.029068 0.036334 255 220 0
0.551590 -0.038770 0.012067 255 220 0
0.601486 -0.032217 0.028670 255 220 0
0.644603 0.020655 0.063083 255 220 0
0.553854 -0.010711 0.039379 255 220 0
0.600616 -0.043015 0.043846 255 220 0
0.595087 0.078224 0.085615 255 220 0
0.630515 0.065253 0.094932 255 220 0
0.612312 0.071570 0.023003 255 220 0
0.575378 0.019221 0.086317 255 220 0
0.569378 0.008697 0.080361 255 220 0
0.637963 0.091633 0.073817 255 220 0
0.643668 0.039930 0.081491 255 220 0
0.643287 0.019714 0.050276 255 220 0
0.616747 0.063682 0.020180 255 220 0
0.640471 0.035666 0.035314 255 220 0
0.574613 0.015666 0.085951 255 220 0
0.632197 0.011097 0.085117 255 220 0
0.607153 0.066608 0.019899 255 220 0
0.632340 -0.004774 0.062985 255 220 0
0.648433 0.035479 0.066023 255 220 0
0.634659 0.041976 0.092623 255 220 0
0.616440 0.044562 0.101617 255 220 0
0.572676 0.045074 0.069943 255 220 0
0.575754 0.055058 0.069067 255 220 0
0.575652 0.020465 0.086438 255 220 0
0.634148 0.022740 0.031126 255 220 0
0.600266 -0.033397 0.076685 255 220 0
0.623186 0.018197 0.022383 255 220 0
0.580880 -0.035043 0.080702 255 220 0
0.645791 0.052226 0.044259 255 220 0
0.598079 -0.046170 0.049727 255 220 0
0.638675 0.006019 0.062328 255 220 0
0.617351 0.098838 0.059034 255 220 0
0.610745 -0.030096 0.039939 255 220 0
0.627041 0.098716 0.061616 255 220 0
0.557752 -0.034269 0.011053 255 220 0
0.597326 -0.024227 0.020187 255 220 0
0.571184 -0.012438 0.012521 255 220 0
0.554167 -0.009854 0.037652 255 220 0
0.629322 0.059741 0.025781 255 220 0
0.639627 0.022802 0.038840 255 220 0
0.554070 -0.016370 0.050592 255 220 0
0.608713 -0.036458 0.053120 255 220 0
0.599985 0.060567 0.017938 255 220 0
0.570147 0.008817 0.017558 255 220 0
0.621425 0.084304 0.033488 255 220 0
0.574668 -0.056193 0.025139 255 220 0
0.643076 0.059423 0.040169 255 220 0
0.612188 0.062879 0.018617 255 220 0
0.625566 0.023005 0.096351 255 220 0
0.613129 0.009831 0.017857 255 220 0
0.542834 -0.046683 0.036479 255 220 0
0.557272 -0.011958 0.058119 255 220 0
0.577774 0.021346 0.014725 255 220 0
0.644889 0.023355 0.067633 255 220 0
0.644924 0.047704 0.080751 255 220 0
0.596026 -0.034887 0.025134 255 220 0
0.589996 0.081108 0.073963 255 220 0
0.544688 -0.033579 0.031956 255 220 0
0.602835 0.010337 0.012688 255 220 0
0.601771 0.012511 0.011940 255 220 0
0.645043 0.024067 0.051712 255 220 0
0.592801 0.079541 0.039433 255 220 0
0.640175 0.018567 0.042675 255 220 0
0.583399 0.057296 0.027264 255 220 0
0.614789 0.044405 0.014985 255 220 0
0.632423 0.095557 0.073500 255 220 0
0.588397 -0.009526 0.095128 255 220 0
0.606816 0.061074 0.099435 255 220 0
0.590210 0.060947 0.023056 255 220 0
0.641686 0.043264 0.085093 255 220 0
0.623299 0.098793 0.071387 255 220 0
0.634276 0.061741 0.030475 255 220 0
0.555904 -0.004586 0.039366 255 220 0
0.585191 0.053933 0.022770 255 220 0
0.584876 -0.005179 0.094429 255 220 0
0.577039 0.020147 0.014958 255 220 0
0.578694 0.042954 0.084754 255 220 0
0.626881 0.098185 0.058889 255 220 0
0.614523 -0.017764 0.080682 255 220 0
0.560792 -0.003396 0.023024 255 220 0
0.621863 -0.011754 0.077735 255 220 0
0.585296 0.022364 0.011422 255 220 0
0.621229 -0.001874 0.029038 255 220 0
0.564484 -0.063620 0.038949 255 220 0
0.555017 -0.011100 0.049865 255 220 0
0.619438 -0.007237 0.030308 255 220 0
0.575283 0.048232 0.075926 255 220 0
0.562268 0.002438 0.066930 255 220 0
0.579370 0.040484 0.020676 255 220 0
0.591519 0.084580 0.057027 255 220 0
0.570939 -0.010675 0.082721 255 220 0
0.605948 0.068208 0.097544 255 220 0
0.580127 0.031722 0.016051 255 220 0
0.641657 0.036239 0.083716 255 220 0
0.649728 0.053111 0.058065 255 220 0
0.572357 0.025138 0.021203 255 220 0
0.584632 0.043747 0.091536 255 220 0
0.544091 -0.038305 0.019844 255 220 0
0.560077 -0.050248 0.012403 255 220 0
0.619143 0.083888 0.032516 255 220 0
0.595668 0.082101 0.039579 255 220 0
0.572258 -0.003113 0.084567 255 220 0
0.556746 -0.016573 0.018976 255 220 0
0.600212 -0.015832 0.093074 255 220 0
0.600437 0.067512 0.095921 255 220 0
0.608503 -0.030384 0.071804 255 220 0
0.571362 -0.054976 0.061706 255 220 0
0.551548 -0.033830 0.013680 255 220 0
0.581410 -0.031135 0.083326 255 220 0
0.565351 -0.047702 0.064276 255 220 0
0.569983 -0.006599 0.014038 255 220 0
0.560184 0.009165 0.039961 255 220 0
0.592801 0.004556 0.011415 255 220 0
0.609660 0.042271 0.013233 255 220 0
0.593411 0.031796 0.100137 255 220 0
0.611625 0.096016 0.052561 255 220 0
0.642364 0.082850 0.052659 255 220 0
0.582844 0.059826 0.030254 255 220 0
0.581929 0.068493 0.043664 255 220 0
0.584397 -0.047102 0.069612 255 220 0
0.627507 0.015742 0.026873 255 220 0
0.597651 0.076456 0.030589 255 220 0
0.580202 -0.057435 0.036626 255 220 0
0.551641 -0.055894 0.045531 255 220 0
0.575756 0.050697 0.075020 255 220 0
0.586556 0.077655 0.071301 255 220 0
0.588019 -0.017320 0.092395 255 220 0
0.568112 -0.020989 0.011774 255 220 0
0.582482 -0.048661 0.023514 255 220 0
0.645146 0.023049 0.065252 255 220 0
0.622250 -0.013306 0.075128 255 220 0
0.559083 -0.009936 0.062637 255 220 0
0.647499 0.070766 0.056154 255 220 0
0.620470 -0.015674 0.038606 255 220 0
0.572714 0.052031 0.052679 255 220 0
0.589613 -0.045069 0.027183 255 220 0
0.552782 -0.042240 0.011189 255 220 0
0.590008 -0.052255 0.045298 255 220 0
0.636376 0.050496 0.029633 255 220 0
0.633478 0.087025 0.084297 255 220 0
0.568114 0.037685 0.047193 255 220 0
0.603632 0.070949 0.023081 255 220 0
0.584577 0.002115 0.095120 255 220 0
0.637443 0.010166 0.075235 255 220 0
0.621965 0.005068 0.091789 255 220 0
0.619439 -0.018036 0.039617 255 220 0
0.586819 0.073014 0.079326 255 220 0
0.602526 0.023304 0.102345 255 220 0
0.587199 -0.053144 0.038195 255 220 0
0.603363 0.064539 0.097892 255 220 0
0.582769 0.051415 0.087063 255 220 0
0.630717 0.090180 0.045508 255 220 0
0.613890 0.013228 0.099211 255 220 0
0.575265 0.055853 0.044185 255 220 0
0.638924 0.028099 0.085031 255 220 0
0.598328 0.056204 0.098011 255 220 0
0.620491 0.097634 0.074935 255 220 0
0.579129 0.037821 0.086912 255 220 0
0.636573 0.030464 0.031398 255 220 0
0.629038 0.069498 0.094948 255 220 0
0.558111 -0.001054 0.053602 255 220 0
0.559764 -0.029279 0.066098 255 220 0
0.551601 -0.049760 0.012714 255 220 0
0.612194 0.025666 0.013854 255 220 0
0.587731 -0.010172 0.012223 255 220 0
0.591450 -0.038451 0.023386 255 220 0
0.590202 -0.042092 0.072859 255 220 0
0.543478 -0.053078 0.033443 255 220 0
0.600599 0.000435 0.099438 255 220 0
0.612325 -0.000830 0.021089 255 220 0
0.609775 -0.006886 0.093726 255 220 0
0.558801 -0.051373 0.012736 255 220 0
0.560772 -0.014580 0.068306 255 220 0
0.557987 -0.061607 0.045205 255 220 0
0.563563 0.020750 0.057423 255 220 0
0.604194 -0.002576 0.016558 255 220 0
0.590886 0.049405 0.095415 255 220 0
0.632265 0.055291 0.026928 255 220 0
0.647470 0.051018 0.076177 255 220 0
0.619959 0.092144 0.042571 255 220 0
0.585593 -0.023089 0.013653 255 220 0
0.589383 0.079306 0.075982 255 220 0
0.621567 -0.004485 0.085429 255 220 0
0.594299 -0.016256 0.093766 255 220 0
0.560736 0.012038 0.051605 255 220 0
0.597396 -0.035009 0.026574 255 220 0
0.618855 0.094257 0.081135 255 220 0
0.619478 0.001962 0.025514 255 220 0
0.622540 -0.009576 0.035753 255 220 0
0.598273 0.083150 0.038163 255 220 0
0.567394 -0.005785 0.078942 255 220 0
0.572065 -0.015245 0.011938 255 220 0
0.561449 0.014642 0.043295 255 220 0
0.567200 0.033357 0.043021 255 220 0
0.590173 0.078158 0.041517 255 220 0
0.638298 0.011190 0.044957 255 220 0
0.626646 0.082493 0.034401 255 220 0
0.648698 0.042111 0.070780 255 220 0
0.603315 -0.038808 0.064075 255 220 0
0.571008 0.011953 0.017693 255 220 0
0.622103 -0.004997 0.084368 255 220 0
0.565849 -0.008125 0.015811 255 220 0
0.579419 0.021338 0.013718 255 220 0
0.558378 -0.007929 0.059422 255 220 0
0.577021 0.044396 0.081722 255 220 0
0.587563 0.063420 0.087446 255 220 0
0.558142 -0.048093 0.011359 255 220 0
0.643425 0.034296 0.080176 255 220 0
0.637562 0.027407 0.086609 255 220 0
0.634794 0.065772 0.032312 255 220 0
0.630058 0.098048 0.064568 255 220 0
0.559072 -0.022155 0.014339 255 220 0
0.548113 -0.025553 0.032527 255 220 0
0.643171 0.018663 0.051330 255 220 0
0.584774 0.063199 0.030704 255 220 0
0.573817 -0.016470 0.011600 255 220 0
0.583624 -0.005101 0.093702 255 220 0
0.569355 0.033034 0.070425 255 220 0
0.566877 0.026432 0.066949 255 220 0
0.572833 -0.029363 0.011300 255 220 0
0.599818 0.085382 0.040038 255 220 0
0.625540 0.066424 0.025439 255 220 0
0.590329 0.082919 0.069627 255 220 0
0.574512 -0.014234 0.011719 255 220 0
0.569843 0.039641 0.040084 255 220 0
0.622073 -0.014122 0.039683 255 220 0
0.632016 0.082693 0.038493 255 220 0
0.645877 0.040572 0.077564 255 220 0
0.559713 -0.001951 0.060487 255 220 0
0.543287 -0.039539 0.035125 255 220 0
0.560262 0.010646 0.043674 255 220 0
0.609562 0.047412 0.013999 255 220 0
0.612770 -0.005757 0.023467 255 220 0
0.570737 0.025952 0.078171 255 220 0
0.570624 0.042983 0.063304 255 220 0
0.588687 0.052600 0.019118 255 220 0
0.610697 0.018472 0.014264 255 220 0
0.544390 -0.051074 0.038232 255 220 0
0.626407 -0.009542 0.042677 255 220 0
0.619473 0.082244 0.031269 255 220 0
0.586705 0.052754 0.020673 255 220 0
0.650158 0.054814 0.065927 255 220 0
0.570480 0.015389 0.080702 255 220 0
0.577321 0.056561 0.037899 255 220 0
0.550914 -0.027067 0.018242 255 220 0
0.615912 0.058506 0.100044 255 220 0
0.633791 0.078185 0.037043 255 220 0
0.648240 0.047579 0.051376 255 220 0
0.619204 -0.021768 0.067673 255 220 0
0.560624 0.003818 0.060094 255 220 0
0.567424 0.031169 0.063805 255 220 0
0.589457 0.082721 0.061319 255 220 0
0.598261 0.025289 0.010299 255 220 0
0.596267 0.067993 0.023912 255 220 0
0.598611 -0.032120 0.079730 255 220 0
0.601634 -0.043135 0.051307 255 220 0
0.571538 0.042285 0.068607 255 220 0
0.599439 0.020793 0.010508 255 220 0
0.591104 -0.045029 0.028964 255 220 0
0.610064 0.049580 0.101626 255 220 0
0.623046 -0.019219 0.059931 255 220 0
0.545329 -0.031596 0.028628 255 220 0
0.623192 0.026915 0.020155 255 220 0
0.610315 0.091816 0.043097 255 220 0
0.579423 0.064761 0.045042 255 220 0
0.640820 0.020453 0.042627 255 220 0
0.624450 0.097589 0.074892 255 220 0
0.548552 -0.026413 0.023617 255 220 0
0.604429 0.063925 0.018705 255 220 0
0.603762 0.091497 0.076094 255 220 0
0.637673 0.032163 0.087931 255 220 0
0.622037 0.077459 0.094822 255 220 0
0.590225 -0.051475 0.054238 255 220 0
0.639074 0.010992 0.047301 255 220 0
0.616542 0.060160 0.099741 255 220 0
0.629381 -0.009640 0.053168 255 220 0
0.631077 -0.000821 0.075154 255 220 0
0.620677 -0.021565 0.049754 255 220 0
0.555921 -0.008039 0.050739 255 220 0
0.584645 -0.055587 0.048917 255 220 0
0.622360 0.099007 0.059216 255 220 0
0.553396 -0.013526 0.044536 255 220 0
0.579867 -0.050056 0.067544 255 220 0
0.565010 -0.063245 0.033799 255 220 0
0.595956 0.085051 0.044710 255 220 0
0.575074 0.000880 0.013214 255 220 0
0.638443 0.092978 0.062732 255 220 0
0.617234 -0.004031 0.090030 255 220 0
0.593353 0.048301 0.097278 255 220 0
0.570852 0.038501 0.034535 255 220 0
0.626830 -0.003704 0.037024 255 220 0
0.616822 -0.027183 0.052060 255 220 0
0.601499 0.045219 0.012899 255 220 0
0.600013 -0.016205 0.018662 255 220 0
0.587657 0.011739 0.097443 255 220 0
0.574154 0.048293 0.071987 255 220 0
0.615222 0.072014 0.097392 255 220 0
0.611981 0.046500 0.101986 255 220 0
0.560487 0.002438 0.028624 255 220 0
0.564373 -0.039696 0.067713 255 220 0
0.620912 0.075456 0.027306 255 220 0
0.595695 -0.044234 0.034877 255 220 0
0.562870 -0.004412 0.071065 255 220 0
0.590421 0.039461 0.013180 255 220 0
0.625321 0.084421 0.035215 255 220 0
0.570124 0.043060 0.045117 255 220 0
0.607425 0.007065 0.015422 255 220 0
0.595095 0.074352 0.030417 255 220 0
0.591142 0.028115 0.099251 255 220 0
0.599633 -0.022067 0.089076 255 220 0
0.574400 -0.035594 0.012461 255 220 0
0.640842 0.016561 0.074000 255 220 0
0.573694 -0.033828 0.077784 255 220 0
0.636019 0.051279 0.091912 255 220 0
0.631698 0.023296 0.091620 255 220 0
0.631598 0.005963 0.081822 255 220 0
0.564826 0.013932 0.027531 255 220 0
0.578466 0.065741 0.058453 255 220 0
0.597840 -0.045945 0.055048 255 220 0
0.618723 -0.019489 0.072536 255 220 0
0.609790 0.093985 0.076952 255 220 0
0.545426 -0.056157 0.033680 255 220 0
0.593355 -0.048379 0.039183 255 220 0
0.647602 0.033269 0.052787 255 220 0
0.571132 0.024778 0.079262 255 220 0
0.562495 0.008367 0.064285 255 220 0
0.552280 -0.015509 0.039661 255 220 0
0.598899 -0.022363 0.089165 255 220 0
0.591190 -0.051170 0.052547 255 220 0
0.595822 -0.017850 0.092872 255 220 0
0.639863 0.009992 0.067363 255 220 0
0.560726 0.007389 0.057766 255 220 0
0.555375 -0.013959 0.053282 255 220 0
0.608478 0.008371 0.015594 255 220 0
0.550529 -0.060342 0.027182 255 220 0
0.618475 0.069927 0.097750 255 220 0
0.598129 0.078840 0.087903 255 220 0
0.564908 0.000631 0.074346 255 220 0
0.577729 -0.058946 0.037698 255 220 0
0.597107 0.060846 0.096275 255 220 0
0.600008 0.084878 0.083360 255 220 0
0.596938 0.080866 0.036286 255 220 0
0.612474 -0.005990 0.023336 255 220 0
0.635209 0.043893 0.027964 255 220 0
0.549730 -0.038045 0.048958 255 220 0
0.593392 -0.045691 0.064382 255 220 0
0.569179 0.029402 0.072937 255 220 0
0.559809 -0.012755 0.065727 255 220 0
0.575694 -0.029938 0.011900 255 220 0
0.594417 0.000239 0.099055 255 220 0
0.611618 0.077884 0.094799 255 220 0
0.571875 -0.008479 0.083866 255 220 0
0.616001 0.091999 0.042000 255 220 0
0.629907 0.008955 0.086461 255 220 0
0.638099 0.014473 0.041534 255 220 0
0.554262 -0.020856 0.053626 255 220 0
0.595326 0.040026 0.012231 255 220 0
0.606426 0.094218 0.052593 255 220 0
0.629704 -0.007922 0.049136 255 220 0
0.591822 0.019049 0.099733 255 220 0
0.586544 0.021603 0.011024 255 220 0
0.624954 0.053807 0.021340 255 220 0
0.595659 -0.032920 0.023465 255 220 0
0.588926 -0.053038 0.047966 255 220 0
0.594210 0.084703 0.047406 255 220 0
0.600984 0.086250 0.040258 255 220 0
0.605457 -0.039365 0.048998 255 220 0
0.632392 0.062762 0.029153 255 220 0
0.580988 0.065528 0.074453 255 220 0
0.563047 -0.008268 0.072111 255 220 0
0.565947 -0.005502 0.076883 255 220 0
0.614710 0.046995 0.015279 255 220 0
0.628171 0.098153 0.069938 255 220 0
0.591843 0.049512 0.016051 255 220 0
0.635451 0.017789 0.034966 255 220 0
0.640230 0.083915 0.049676 255 220 0
0.626933 0.049026 0.097881 255 220 0
0.627827 0.029163 0.096209 255 220 0
0.621288 -0.009928 0.034320 255 220 0
0.622970 0.058567 0.021347 255 220 0
0.572685 0.050487 0.046247 255 220 0
0.575153 0.044692 0.078170 255 220 0
0.564323 0.022805 0.040006 255 220 0
0.633465 0.029982 0.028082 255 220 0
0.604966 0.081421 0.090335 255 220 0
0.646355 0.056304 0.046217 255 220 0
0.639237 0.049646 0.088679 255 220 0
0.595129 0.051122 0.097631 255 220 0
0.630471 0.097346 0.060218 255 220 0
0.625192 0.099336 0.064026 255 220 0
0.581896 0.056795 0.083485 255 220 0
0.596943 -0.016954 0.017113 255 220 0
0.606551 0.038035 0.102926 255 220 0
0.592753 0.080005 0.040277 255 220 0
0.634250 -0.000207 0.067488 255 220 0
0.614615 0.060877 0.099800 255 220 0
0.591779 0.037226 0.098568 255 220 0
0.600120 0.062338 0.018736 255 220 0
0.584884 0.033247 0.013631 255 220 0
0.637241 0.028636 0.032813 255 220 0
0.592866 -0.017860 0.092960 255 220 0
0.604580 -0.025696 0.026995 255 220 0
0.613389 0.077704 0.095125 255 220 0
0.636689 0.014387 0.038942 255 220 0
0.617854 0.093051 0.082692 255 220 0
0.559019 -0.021522 0.065428 255 220 0
0.596533 0.035443 0.101109 255 220 0
0.604155 0.017702 0.011818 255 220 0
0.637937 0.068477 0.089103 255 220 0
0.565857 -0.004648 0.076693 255 220 0
0.641703 0.068676 0.084755 255 220 0
0.572667 0.026054 0.021244 255 220 0
0.616199 0.023227 0.016312 255 220 0
0.644998 0.033581 0.044339 255 220 0
0.641084 0.068230 0.040498 255 220 0
0.585623 0.077614 0.056051 255 220 0
0.595258 -0.044782 0.063781 255 220 0
0.596330 -0.046535 0.042021 255 220 0
0.644693 0.062192 0.043992 255 220 0
0.600623 -0.043968 0.049512 255 220 0
0.604761 0.094788 0.062584 255 220 0
0.568668 0.034493 0.065488 255 220 0
0.553842 -0.014113 0.026724 255 220 0
0.572815 -0.007542 0.084860 255 220 0
0.586254 0.078133 0.054070 255 220 0
0.607801 0.053489 0.100911 255 220 0
0.601346 -0.029722 0.080444 255 220 0
0.624634 0.001423 0.086901 255 220 0
0.627466 0.073417 0.094649 255 220 0
0.564959 -0.052797 0.060404 255 220 0
0.628017 0.012232 0.090395 255 220 0
0.632771 -0.004222 0.053041 255 220 0
0.596620 0.023488 0.010185 255 220 0
0.548832 -0.024114 0.034599 255 220 0
0.600508 -0.043762 0.055557 255 220 0
0.635660 0.021101 0.033678 255 220 0
0.642929 0.022765 0.074439 255 220 0
0.589751 0.066790 0.088044 255 220 0
0.605370 0.019210 0.012006 255 220 0
0.582874 -0.038399 0.017118 255 220 0
0.610118 0.097200 0.065208 255 220 0
0.600251 -0.010877 0.016983 255 220 0
0.612949 0.046902 0.014712 255 220 0
0.647798 0.032611 0.054728 255 220 0
0.593645 0.043938 0.013559 255 220 0
0.618618 -0.023456 0.065452 255 220 0
