ply
format ascii 1.0
element vertex 1024
property float x
property float y
property float z
property uchar red
property uchar green
property uchar blue
end_header
0.628553 0.011860 0.028927 255 220 0
0.586111 -0.055037 0.044087 255 220 0
0.624932 0.005390 0.028280 255 220 0
0.571609 0.049440 0.059801 255 220 0
0.644595 0.080720 0.076064 255 220 0
0.613095 -0.024283 0.078300 255 220 0
0.571299 0.042915 0.066022 255 220 0
0.605272 0.066330 0.097605 255 220 0
0.617340 0.097435 0.075645 255 220 0
0.626541 -0.011615 0.072290 255 220 0
0.594001 -0.046640 0.036641 255 220 0
0.570288 0.000115 0.078842 255 220 0
0.600984 0.092389 0.050846 255 220 0
0.620941 0.079212 0.030032 255 220 0
0.566911 0.031287 0.061078 255 220 0
0.601985 0.069525 0.021900 255 220 0
0.625142 -0.018285 0.058588 255 220 0
0.581983 -0.030525 0.081429 255 220 0
0.585936 -0.032198 0.018419 255 220 0
0.586618 -0.017366 0.014748 255 220 0
0.567242 0.038594 0.050317 255 220 0
0.630044 0.093351 0.048411 255 220 0
0.634167 0.007290 0.081254 255 220 0
0.637573 0.002106 0.059669 255 220 0
0.632026 -0.002515 0.043450 255 220 0
0.561406 0.017803 0.048257 255 220 0
0.605568 0.026409 0.013038 255 220 0
0.565408 -0.048132 0.063040 255 220 0
0.568926 0.037207 0.063086 255 220 0
0.587796 -0.009592 0.091567 255 220 0
0.581515 -0.028304 0.015517 255 220 0
0.604048 0.020869 0.101177 255 220 0
0.577125 0.060785 0.066521 255 220 0
0.571425 0.040131 0.068364 255 220 0
0.650808 0.047403 0.063838 255 220 0
0.641805 0.063495 0.039273 255 220 0
0.621346 0.098557 0.054629 255 220 0
0.603001 0.004530 0.099049 255 220 0
0.546365 -0.055362 0.041416 255 220 0
0.553414 -0.060504 0.028475 255 220 0
0.627633 0.067254 0.027830 255 220 0
0.630895 0.001077 0.037793 255 220 0
0.585210 0.045754 0.016993 255 220 0
0.640133 0.056070 0.034930 255 220 0
0.581499 0.072166 0.062704 255 220 0
0.638909 0.011977 0.076566 255 220 0
0.574478 0.031437 0.019041 255 220 0
0.593990 0.080422 0.081609 255 220 0
0.619095 0.023709 0.099917 255 220 0
0.607092 0.064688 0.098566 255 220 0
0.634524 0.055065 0.028695 255 220 0
0.608275 -0.038030 0.050366 255 220 0
0.637017 0.081150 0.086377 255 220 0
0.641798 0.080563 0.048362 255 220 0
0.631131 -0.007000 0.067568 255 220 0
0.604082 0.023812 0.012828 255 220 0
0.569586 0.003409 0.077555 255 220 0
0.539884 -0.039556 0.030121 255 220 0
0.547467 -0.044694 0.016255 255 220 0
0.578580 0.034646 0.016922 255 220 0
0.600352 0.033325 0.100603 255 220 0
0.616265 0.051290 0.100855 255 220 0
0.562209 -0.003456 0.020334 255 220 0
0.617351 -0.028441 0.053031 255 220 0
0.643291 0.078480 0.049369 255 220 0
0.610714 0.080481 0.028794 255 220 0
0.585127 -0.043840 0.073529 255 220 0
0.556497 -0.062908 0.034943 255 220 0
0.549102 -0.024490 0.022197 255 220 0
0.633792 0.081307 0.039368 255 220 0
0.543160 -0.036935 0.021563 255 220 0
0.577269 0.044005 0.022097 255 220 0
0.633881 0.071005 0.033862 255 220 0
0.636054 -0.000647 0.057960 255 220 0
0.573052 -0.057063 0.028462 255 220 0
0.645910 0.052313 0.080424 255 220 0
0.619347 -0.019823 0.074384 255 220 0
0.646355 0.032875 0.074451 255 220 0
0.595495 -0.018984 0.091120 255 220 0
0.590240 0.044711 0.093920 255 220 0
0.563244 0.024802 0.040799 255 220 0
0.609799 0.090051 0.038200 255 220 0
0.614232 0.072174 0.024189 255 220 0
0.626362 0.098728 0.057167 255 220 0
0.581306 0.072665 0.057988 255 220 0
0.624106 0.064741 0.097891 255 220 0
0.590361 -0.046216 0.069377 255 220 0
0.557988 -0.051774 0.016984 255 220 0
0.568702 -0.016992 0.013822 255 220 0
0.577656 0.053101 0.028002 255 220 0
0.580216 0.053263 0.080288 255 220 0
0.610802 -0.031562 0.040664 255 220 0
0.586080 -0.014065 0.014043 255 220 0
0.590925 -0.049312 0.036633 255 220 0
0.574159 0.037704 0.022212 255 220 0
0.603709 0.035189 0.012550 255 220 0
0.593040 -0.034506 0.081326 255 220 0
0.596498 -0.026182 0.021713 255 220 0
0.562567 -0.048449 0.060980 255 220 0
0.609251 0.014733 0.100354 255 220 0
0.644834 0.019798 0.066601 255 220 0
0.570455 0.027820 0.022026 255 220 0
0.645117 0.034070 0.042651 255 220 0
0.624547 0.001436 0.089211 255 220 0
0.637402 0.002972 0.051102 255 220 0
0.579864 0.066683 0.067774 255 220 0
0.592368 -0.049191 0.061415 255 220 0
0.593984 -0.033408 0.023669 255 220 0
0.586013 -0.001412 0.012760 255 220 0
0.557580 -0.030485 0.061231 255 220 0
0.617480 0.072940 0.097249 255 220 0
0.564674 -0.003280 0.018340 255 220 0
0.605666 0.014562 0.100546 255 220 0
0.574243 0.055674 0.039485 255 220 0
0.598323 -0.046679 0.047531 255 220 0
0.566168 0.032672 0.055917 255 220 0
0.574957 0.030225 0.080798 255 220 0
0.594814 -0.007389 0.094916 255 220 0
0.626932 0.075988 0.094489 255 220 0
0.558810 -0.028886 0.014269 255 220 0
0.621716 -0.002978 0.089197 255 220 0
0.599739 0.046967 0.013926 255 220 0
0.645684 0.041082 0.042545 255 220 0
0.641756 0.019336 0.043643 255 220 0
0.636182 0.048416 0.029232 255 220 0
0.582021 -0.004229 0.012842 255 220 0
0.576612 0.042265 0.079101 255 220 0
0.574685 0.047052 0.027807 255 220 0
0.615245 0.057494 0.018779 255 220 0
0.616620 -0.024513 0.071671 255 220 0
0.570036 0.029587 0.070890 255 220 0
0.606482 0.006259 0.016697 255 220 0
0.646144 0.046191 0.043592 255 220 0
0.580436 0.022264 0.088284 255 220 0
0.603321 0.021206 0.012863 255 220 0
0.601105 0.088111 0.040172 255 220 0
0.638777 0.004530 0.061684 255 220 0
0.548077 -0.021179 0.028834 255 220 0
0.631727 0.034431 0.095067 255 220 0
0.650396 0.043322 0.064515 255 220 0
0.599160 -0.020939 0.021110 255 220 0
0.603863 0.073441 0.024185 255 220 0
0.628832 -0.000958 0.036372 255 220 0
0.584134 -0.037140 0.078446 255 220 0
0.630529 0.089003 0.043112 255 220 0
0.641698 0.021210 0.078458 255 220 0
0.544624 -0.054153 0.039920 255 220 0
0.632988 0.091200 0.081510 255 220 0
0.573971 0.014561 0.082298 255 220 0
0.561846 -0.000295 0.063481 255 220 0
0.594937 0.033326 0.011796 255 220 0
0.642280 0.011872 0.056923 255 220 0
0.646955 0.079770 0.064668 255 220 0
0.587660 0.080164 0.067650 255 220 0
0.549755 -0.025652 0.046744 255 220 0
0.632996 0.034804 0.026805 255 220 0
0.586790 0.069758 0.081199 255 220 0
0.624054 -0.012606 0.076165 255 220 0
0.602837 0.078977 0.028685 255 220 0
0.553818 -0.042986 0.014114 255 220 0
0.606698 0.038632 0.013362 255 220 0
0.569842 0.045636 0.041349 255 220 0
0.619093 -0.026436 0.056277 255 220 0
0.591210 0.061970 0.090457 255 220 0
0.579626 0.048381 0.022165 255 220 0
0.583766 0.000615 0.090773 255 220 0
0.570827 0.034837 0.070001 255 220 0
0.631176 0.045106 0.024725 255 220 0
0.625240 -0.011163 0.075876 255 220 0
0.646073 0.067267 0.048244 255 220 0
0.581863 -0.055363 0.035458 255 220 0
0.593992 -0.028844 0.085578 255 220 0
0.593875 0.001447 0.013464 255 220 0
0.580904 -0.057993 0.044752 255 220 0
0.614561 0.098855 0.057097 255 220 0
0.629668 0.004232 0.085331 255 220 0
0.595123 -0.043882 0.033969 255 220 0
0.600939 0.028036 0.100920 255 220 0
0.546291 -0.051567 0.044998 255 220 0
0.638030 0.051325 0.031515 255 220 0
0.549959 -0.016234 0.032313 255 220 0
0.635535 0.001309 0.047164 255 220 0
0.614054 -0.025595 0.074691 255 220 0
0.540204 -0.048780 0.035293 255 220 0
0.630902 0.038634 0.024647 255 220 0
0.626188 0.098976 0.057839 255 220 0
0.628894 0.076543 0.093551 255 220 0
0.565570 -0.035381 0.068994 255 220 0
0.570638 -0.061875 0.041817 255 220 0
0.640766 0.008774 0.063264 255 220 0
0.566944 -0.021373 0.013702 255 220 0
0.628806 0.056105 0.096948 255 220 0
0.650875 0.049421 0.058411 255 220 0
0.551785 -0.044662 0.053537 255 220 0
0.583958 0.043147 0.016667 255 220 0
0.594246 0.046155 0.096399 255 220 0
0.599452 0.068879 0.021997 255 220 0
0.620264 -0.022286 0.067561 255 220 0
0.640989 0.029849 0.036851 255 220 0
0.603576 0.074339 0.024868 255 220 0
0.643980 0.017230 0.066249 255 220 0
0.600026 0.035584 0.012106 255 220 0
0.587850 -0.047018 0.069692 255 220 0
0.555036 -0.011527 0.052165 255 220 0
0.629112 0.038442 0.023371 255 220 0
0.567924 -0.018681 0.075328 255 220 0
0.634701 0.095514 0.072707 255 220 0
0.628590 -0.008824 0.071944 255 220 0
0.614328 0.034709 0.102115 255 220 0
0.576743 -0.038662 0.074701 255 220 0
0.547390 -0.034027 0.018085 255 220 0
0.600284 -0.041561 0.066275 255 220 0
0.619170 0.040647 0.017736 255 220 0
0.564488 -0.056595 0.056263 255 220 0
0.570015 0.028414 0.022906 255 220 0
0.606290 0.055351 0.016204 255 220 0
0.586054 0.079566 0.059798 255 220 0
0.643182 0.063882 0.041525 255 220 0
0.647522 0.030625 0.068424 255 220 0
0.541061 -0.043949 0.022773 255 220 0
0.587332 0.066648 0.027365 255 220 0
0.636351 0.073468 0.090220 255 220 0
0.551252 -0.013302 0.037314 255 220 0
0.646135 0.061839 0.079973 255 220 0
0.624542 0.010663 0.025907 255 220 0
0.543536 -0.032983 0.024323 255 220 0
0.593761 -0.018917 0.017656 255 220 0
0.594286 0.039545 0.012754 255 220 0
0.554295 -0.005927 0.033610 255 220 0
0.591677 -0.024237 0.087940 255 220 0
0.640863 0.008563 0.060417 255 220 0
0.597438 -0.016882 0.092272 255 220 0
0.614276 0.036835 0.102108 255 220 0
0.641121 0.072588 0.085811 255 220 0
0.564068 0.008203 0.065862 255 220 0
0.618340 0.045701 0.101016 255 220 0
0.543804 -0.040684 0.019215 255 220 0
0.636315 0.091829 0.077646 255 220 0
0.554067 -0.045479 0.014458 255 220 0
0.546750 -0.034650 0.045145 255 220 0
0.563587 -0.050807 0.060230 255 220 0
0.575067 0.019941 0.015774 255 220 0
0.563345 0.009204 0.063872 255 220 0
0.566355 -0.023743 0.072828 255 220 0
0.633498 0.010356 0.084720 255 220 0
0.540467 -0.038175 0.028259 255 220 0
0.627667 0.082389 0.035360 255 220 0
0.614189 0.097511 0.052342 255 220 0
0.605321 -0.035244 0.071401 255 220 0
0.542126 -0.033861 0.031909 255 220 0
0.576660 -0.059870 0.044612 255 220 0
0.618904 0.008085 0.022805 255 220 0
0.623408 -0.018949 0.065813 255 220 0
0.592760 0.076205 0.031810 255 220 0
0.596942 0.015784 0.012077 255 220 0
0.556138 -0.053293 0.017806 255 220 0
0.643099 0.024605 0.043067 255 220 0
0.643652 0.079270 0.050690 255 220 0
0.612023 0.097392 0.071802 255 220 0
0.584099 0.062766 0.081699 255 220 0
0.566108 -0.044897 0.015637 255 220 0
0.632229 0.077806 0.035895 255 220 0
0.601165 0.037589 0.012400 255 220 0
0.643950 0.062639 0.042414 255 220 0
0.610542 0.034173 0.014306 255 220 0
0.571449 0.033243 0.023403 255 220 0
0.547649 -0.032915 0.018372 255 220 0
0.608910 0.094106 0.045866 255 220 0
0.621746 0.074243 0.027743 255 220 0
0.540176 -0.049727 0.033960 255 220 0
0.567757 -0.005730 0.075558 255 220 0
0.643990 0.074428 0.047899 255 220 0
0.648101 0.039606 0.072676 255 220 0
0.577942 0.057250 0.072433 255 220 0
0.637835 0.036554 0.031449 255 220 0
0.577155 -0.023998 0.081491 255 220 0
0.640741 0.009839 0.051470 255 220 0
0.574694 0.037954 0.021703 255 220 0
0.643507 0.065575 0.042669 255 220 0
0.575709 0.044404 0.075916 255 220 0
0.641339 0.022759 0.080198 255 220 0
0.550070 -0.057977 0.043065 255 220 0
0.540851 -0.043860 0.023223 255 220 0
0.599654 0.076723 0.027852 255 220 0
0.639482 0.053580 0.089454 255 220 0
0.556620 -0.041398 0.059018 255 220 0
0.646011 0.044176 0.043217 255 220 0
0.631550 0.058983 0.095399 255 220 0
0.573064 0.031789 0.020614 255 220 0
0.575401 -0.016456 0.082488 255 220 0
0.650672 0.053276 0.057260 255 220 0
0.578834 -0.048665 0.068680 255 220 0
0.637406 0.067128 0.090685 255 220 0
0.596009 0.081951 0.035767 255 220 0
0.573103 -0.034823 0.074602 255 220 0
0.542265 -0.042446 0.040703 255 220 0
0.576842 -0.008149 0.085021 255 220 0
0.615241 0.087200 0.088807 255 220 0
0.598867 -0.016442 0.092568 255 220 0
0.588342 0.003107 0.012548 255 220 0
0.545172 -0.027655 0.027644 255 220 0
0.588461 -0.013601 0.014545 255 220 0
0.630120 0.018965 0.027865 255 220 0
0.619336 -0.021889 0.070745 255 220 0
0.639814 0.088039 0.052320 255 220 0
0.641864 0.012938 0.050750 255 220 0
0.636308 0.082234 0.086332 255 220 0
0.611208 0.007166 0.098703 255 220 0
0.601624 -0.043643 0.046565 255 220 0
0.587671 0.022581 0.094004 255 220 0
0.608933 0.068408 0.098013 255 220 0
0.617125 0.047374 0.101092 255 220 0
0.574956 0.039643 0.022304 255 220 0
0.615811 -0.024935 0.072569 255 220 0
0.639551 0.014748 0.077892 255 220 0
0.587922 0.008169 0.093850 255 220 0
0.598966 -0.031974 0.082130 255 220 0
0.598976 -0.003346 0.015862 255 220 0
0.563265 0.012336 0.062402 255 220 0
0.637493 0.065601 0.090802 255 220 0
0.610700 -0.035740 0.055360 255 220 0
0.614877 0.089891 0.086028 255 220 0
0.539102 -0.044140 0.031967 255 220 0
0.573882 0.057633 0.048068 255 220 0
0.584777 0.046904 0.017656 255 220 0
0.590526 0.083401 0.047783 255 220 0
0.583715 -0.011693 0.088923 255 220 0
0.554113 -0.006073 0.040204 255 220 0
0.577916 0.066663 0.051810 255 220 0
0.573792 -0.025509 0.078702 255 220 0
0.609156 0.068968 0.097889 255 220 0
0.550038 -0.024498 0.020968 255 220 0
0.636849 0.011765 0.080574 255 220 0
0.568964 -0.007069 0.077276 255 220 0
0.594818 0.088936 0.058261 255 220 0
0.555044 -0.011575 0.052213 255 220 0
0.561378 -0.009426 0.018722 255 220 0
0.611874 0.058885 0.100185 255 220 0
0.590265 0.015758 0.095600 255 220 0
0.604897 -0.003772 0.097178 255 220 0
0.650632 0.058825 0.059469 255 220 0
0.612825 0.097631 0.071963 255 220 0
0.639848 0.009405 0.048526 255 220 0
0.646486 0.057069 0.045878 255 220 0
0.643540 0.029274 0.079316 255 220 0
0.643824 0.033253 0.080438 255 220 0
0.548333 -0.029748 0.045790 255 220 0
0.642921 0.063614 0.041010 255 220 0
0.645293 0.024078 0.070806 255 220 0
0.540550 -0.047074 0.037279 255 220 0
0.636807 0.082622 0.085677 255 220 0
0.579290 0.040455 0.084148 255 220 0
0.573154 0.036316 0.022739 255 220 0
0.616806 -0.023909 0.072426 255 220 0
0.608354 0.045152 0.014417 255 220 0
0.640991 0.019796 0.078946 255 220 0
0.638813 0.026698 0.034861 255 220 0
0.629845 0.082221 0.090435 255 220 0
0.598682 -0.031027 0.025770 255 220 0
0.546991 -0.042354 0.047765 255 220 0
0.570092 -0.056164 0.059337 255 220 0
0.627719 0.051431 0.097662 255 220 0
0.641969 0.036075 0.084389 255 220 0
0.557832 -0.059051 0.023974 255 220 0
0.625452 0.095994 0.050100 255 220 0
0.587452 -0.029390 0.084109 255 220 0
0.567547 0.006761 0.073563 255 220 0
0.564302 0.019969 0.028391 255 220 0
0.566157 0.022668 0.026225 255 220 0
0.595059 0.088079 0.068203 255 220 0
0.565415 0.028192 0.058051 255 220 0
0.607375 0.096813 0.057872 255 220 0
0.554602 -0.057856 0.022519 255 220 0
0.640856 0.034889 0.035408 255 220 0
0.580964 0.067982 0.069632 255 220 0
0.559171 -0.007089 0.021754 255 220 0
0.590395 -0.033962 0.081776 255 220 0
0.645043 0.053861 0.082101 255 220 0
0.580456 0.068722 0.066505 255 220 0
0.609561 0.094278 0.076798 255 220 0
0.603730 0.091681 0.076167 255 220 0
0.595967 0.023012 0.011429 255 220 0
0.564596 -0.013068 0.071077 255 220 0
0.580641 0.042614 0.018452 255 220 0
0.567771 -0.010439 0.075667 255 220 0
0.579283 0.035671 0.016788 255 220 0
0.585507 0.055550 0.087088 255 220 0
0.648428 0.071844 0.069394 255 220 0
0.577422 -0.017166 0.013231 255 220 0
0.563769 -0.061007 0.028963 255 220 0
0.561235 -0.039299 0.013576 255 220 0
0.608563 0.077073 0.094275 255 220 0
0.574096 -0.059924 0.037282 255 220 0
0.569948 0.012625 0.018048 255 220 0
0.566580 0.036447 0.044231 255 220 0
0.635167 0.042992 0.093056 255 220 0
0.629961 -0.004112 0.076112 255 220 0
0.629281 0.049637 0.023809 255 220 0
0.567254 0.005514 0.073253 255 220 0
0.628063 -0.013924 0.057059 255 220 0
0.595902 0.072098 0.089897 255 220 0
0.601532 0.066210 0.020150 255 220 0
0.622373 0.045513 0.100014 255 220 0
0.587544 0.003289 0.012505 255 220 0
0.562033 0.016082 0.055728 255 220 0
0.630377 0.091208 0.083181 255 220 0
0.572946 0.040407 0.071882 255 220 0
0.571748 0.050751 0.058076 255 220 0
0.625391 -0.017900 0.054749 255 220 0
0.541263 -0.049915 0.037326 255 220 0
0.638676 0.062465 0.034958 255 220 0
0.625291 0.052779 0.022007 255 220 0
0.568374 0.041463 0.054096 255 220 0
0.615526 -0.028657 0.064965 255 220 0
0.637541 0.009883 0.077392 255 220 0
0.609002 -0.007539 0.021948 255 220 0
0.631595 0.092283 0.048110 255 220 0
0.582190 -0.001970 0.012805 255 220 0
0.560874 -0.053841 0.018936 255 220 0
0.559275 -0.010087 0.020169 255 220 0
0.640424 0.011390 0.071512 255 220 0
0.645367 0.062323 0.081390 255 220 0
0.637568 0.003004 0.064946 255 220 0
0.577729 0.057740 0.071516 255 220 0
0.579771 -0.020806 0.013793 255 220 0
0.554364 -0.024391 0.055383 255 220 0
0.598974 0.028452 0.011664 255 220 0
0.637986 0.022099 0.035574 255 220 0
0.617374 0.062622 0.099494 255 220 0
0.570645 0.000709 0.015714 255 220 0
0.595899 0.027055 0.098950 255 220 0
0.593625 0.039973 0.012917 255 220 0
0.560968 0.006530 0.058856 255 220 0
0.585986 0.079594 0.057995 255 220 0
0.577772 0.056094 0.072908 255 220 0
0.571493 -0.059865 0.033073 255 220 0
0.581860 -0.056041 0.037350 255 220 0
0.645175 0.082225 0.072834 255 220 0
0.622312 0.062950 0.023332 255 220 0
0.546681 -0.056793 0.025744 255 220 0
0.571396 0.043903 0.031871 255 220 0
0.601215 0.023179 0.012170 255 220 0
0.621177 0.021896 0.020646 255 220 0
0.637128 0.018827 0.035853 255 220 0
0.571491 0.015410 0.017396 255 220 0
0.605049 -0.040474 0.046759 255 220 0
0.578065 -0.056723 0.033206 255 220 0
0.610788 -0.033869 0.044951 255 220 0
0.581614 -0.057759 0.050211 255 220 0
0.634283 0.075943 0.036611 255 220 0
0.569819 0.031821 0.069187 255 220 0
0.646599 0.025120 0.056008 255 220 0
0.632336 0.078320 0.036271 255 220 0
0.634975 0.033943 0.092265 255 220 0
0.631704 -0.002130 0.075102 255 220 0
0.557777 -0.053491 0.018088 255 220 0
0.637064 0.094696 0.070225 255 220 0
0.566884 0.031436 0.060833 255 220 0
0.618411 -0.026406 0.049423 255 220 0
0.547464 -0.043458 0.048511 255 220 0
0.610207 -0.005706 0.095421 255 220 0
0.565962 0.014566 0.022595 255 220 0
0.602192 -0.029746 0.082741 255 220 0
0.571560 -0.042083 0.016249 255 220 0
0.623592 0.064714 0.098038 255 220 0
0.607997 0.080047 0.028586 255 220 0
0.552104 -0.017547 0.047720 255 220 0
0.597114 0.038153 0.098885 255 220 0
0.552101 -0.012535 0.041841 255 220 0
0.568680 -0.060896 0.032850 255 220 0
0.584941 -0.031876 0.017852 255 220 0
0.617197 0.080142 0.029399 255 220 0
0.549412 -0.040296 0.050743 255 220 0
0.643750 0.024874 0.044408 255 220 0
0.602915 0.081894 0.031328 255 220 0
0.595881 0.089825 0.057938 255 220 0
0.610333 0.048595 0.015392 255 220 0
0.570280 0.047655 0.054127 255 220 0
0.600278 -0.029596 0.026149 255 220 0
0.570207 0.035176 0.026686 255 220 0
0.569494 0.043791 0.057507 255 220 0
0.562075 -0.028388 0.013705 255 220 0
0.625564 -0.015047 0.068209 255 220 0
0.622403 0.006689 0.093566 255 220 0
0.648025 0.068941 0.054199 255 220 0
0.591402 0.004701 0.095523 255 220 0
0.569021 0.042591 0.039245 255 220 0
0.555342 -0.002525 0.040806 255 220 0
0.553070 -0.060225 0.027930 255 220 0
0.641410 0.010876 0.052769 255 220 0
0.594896 -0.024832 0.088106 255 220 0
0.547894 -0.041660 0.048893 255 220 0
0.564827 0.016268 0.025060 255 220 0
0.594246 0.013304 0.097597 255 220 0
0.560082 -0.051626 0.057438 255 220 0
0.625434 -0.006973 0.080917 255 220 0
0.640610 0.061522 0.088154 255 220 0
0.634518 0.061840 0.093400 255 220 0
0.592871 -0.049637 0.041231 255 220 0
0.571129 0.041060 0.066933 255 220 0
0.594997 0.053119 0.016176 255 220 0
0.575585 0.052079 0.030732 255 220 0
0.615867 0.019574 0.018210 255 220 0
0.638418 0.013681 0.040883 255 220 0
0.599322 0.011254 0.013188 255 220 0
0.546937 -0.023232 0.033988 255 220 0
0.592831 -0.042060 0.029120 255 220 0
0.587022 0.079400 0.046857 255 220 0
0.586542 -0.000024 0.012694 255 220 0
0.603092 0.030905 0.012300 255 220 0
0.593745 0.083041 0.077690 255 220 0
0.586764 -0.020472 0.087927 255 220 0
0.641532 0.010326 0.055680 255 220 0
0.615142 -0.030773 0.051000 255 220 0
0.634385 0.003492 0.041661 255 220 0
0.574391 0.056346 0.040155 255 220 0
0.560769 0.004806 0.026062 255 220 0
0.567468 -0.041096 0.014826 255 220 0
0.592702 0.016596 0.011582 255 220 0
0.619744 -0.000785 0.026650 255 220 0
0.619077 0.057639 0.020228 255 220 0
0.621966 0.046620 0.100070 255 220 0
0.567032 -0.031402 0.071563 255 220 0
0.629073 0.088953 0.041925 255 220 0
0.599635 -0.016398 0.092602 255 220 0
0.635489 0.077343 0.089509 255 220 0
0.604376 0.045322 0.100720 255 220 0
0.608934 0.049039 0.015170 255 220 0
0.597198 0.090554 0.064618 255 220 0
0.618384 -0.027256 0.057389 255 220 0
0.604093 0.080426 0.090183 255 220 0
0.613317 -0.021006 0.032597 255 220 0
0.632162 0.025313 0.092915 255 220 0
0.568993 0.033075 0.027563 255 220 0
0.638882 0.007944 0.071058 255 220 0
0.595846 0.061465 0.094154 255 220 0
0.568821 -0.012949 0.076908 255 220 0
0.626666 0.004364 0.088855 255 220 0
0.602036 -0.014607 0.020404 255 220 0
0.594178 0.039761 0.012808 255 220 0
0.603295 0.043984 0.100589 255 220 0
0.569091 -0.028263 0.013336 255 220 0
0.618902 -0.015314 0.081392 255 220 0
0.637548 0.003702 0.049966 255 220 0
0.588575 0.053413 0.090785 255 220 0
0.627704 -0.003157 0.036506 255 220 0
0.604374 -0.039589 0.042386 255 220 0
0.580368 0.013689 0.088692 255 220 0
0.567482 0.015627 0.021092 255 220 0
0.611422 -0.031617 0.041954 255 220 0
0.579287 -0.031806 0.015674 255 220 0
0.597773 0.014644 0.099157 255 220 0
0.579531 -0.052264 0.065311 255 220 0
0.593672 0.021180 0.011368 255 220 0
0.647490 0.037492 0.073589 255 220 0
0.588486 -0.033169 0.020086 255 220 0
0.570596 0.022052 0.075521 255 220 0
0.561757 -0.056557 0.054686 255 220 0
0.573814 0.057421 0.047671 255 220 0
0.585986 -0.005194 0.013029 255 220 0
0.611510 0.044663 0.101730 255 220 0
0.563861 -0.060443 0.051509 255 220 0
0.581071 0.009599 0.089280 255 220 0
0.630313 0.098704 0.067528 255 220 0
0.597567 0.080165 0.085732 255 220 0
0.591109 -0.031650 0.083475 255 220 0
0.592494 -0.051251 0.051693 255 220 0
0.602968 -0.006525 0.096423 255 220 0
0.579209 0.068669 0.048340 255 220 0
0.628036 0.099578 0.066187 255 220 0
0.634057 0.097134 0.067038 255 220 0
0.571233 0.048189 0.038714 255 220 0
0.595954 0.019689 0.011589 255 220 0
0.609606 -0.006541 0.021964 255 220 0
0.590441 -0.013028 0.091870 255 220 0
0.577636 0.053094 0.074700 255 220 0
0.546908 -0.029299 0.042454 255 220 0
0.547038 -0.037227 0.017185 255 220 0
0.598882 -0.029591 0.025058 255 220 0
0.645835 0.022786 0.054906 255 220 0
0.553321 -0.010908 0.045579 255 220 0
0.601106 -0.041368 0.039341 255 220 0
0.599431 0.076582 0.089925 255 220 0
0.636348 0.064592 0.091839 255 220 0
0.605261 0.074719 0.024935 255 220 0
0.582026 0.016855 0.089937 255 220 0
0.575380 0.006484 0.084413 255 220 0
0.639031 0.092572 0.071662 255 220 0
0.647640 0.040780 0.074506 255 220 0
0.642258 0.022614 0.042504 255 220 0
0.609357 0.067228 0.020815 255 220 0
0.636288 0.039355 0.029453 255 220 0
0.581319 0.013301 0.089462 255 220 0
0.637919 0.011302 0.078062 255 220 0
0.599783 0.069746 0.022455 255 220 0
0.634556 -0.003093 0.055189 255 220 0
0.649668 0.037543 0.058161 255 220 0
0.640731 0.041714 0.087183 255 220 0
0.624365 0.042922 0.099439 255 220 0
0.575604 0.043565 0.076183 255 220 0
0.578160 0.053708 0.075484 255 220 0
0.582278 0.018099 0.090095 255 220 0
0.629719 0.026462 0.025551 255 220 0
0.606395 -0.033904 0.072316 255 220 0
0.617505 0.022018 0.018601 255 220 0
0.588115 -0.036646 0.079593 255 220 0
0.642616 0.055523 0.038461 255 220 0
0.599773 -0.045003 0.045340 255 220 0
0.640328 0.007985 0.054181 255 220 0
0.615873 0.099809 0.061336 255 220 0
0.609955 -0.027797 0.034619 255 220 0
0.625869 0.099943 0.062136 255 220 0
0.552771 -0.032406 0.015411 255 220 0
0.593011 -0.021261 0.018040 255 220 0
0.565559 -0.010152 0.016009 255 220 0
0.553290 -0.009929 0.043889 255 220 0
0.622854 0.063485 0.023792 255 220 0
0.636496 0.026268 0.032151 255 220 0
0.555736 -0.017260 0.056144 255 220 0
0.610537 -0.035075 0.047465 255 220 0
0.592571 0.063538 0.021379 255 220 0
0.564786 0.010671 0.022647 255 220 0
0.615716 0.087136 0.034507 255 220 0
0.572630 -0.054433 0.024667 255 220 0
0.638984 0.062842 0.035440 255 220 0
0.604618 0.066330 0.020036 255 220 0
0.633058 0.022165 0.091114 255 220 0
0.607062 0.013531 0.015357 255 220 0
0.543087 -0.047064 0.042142 255 220 0
0.560106 -0.013206 0.063274 255 220 0
0.571381 0.023676 0.019398 255 220 0
0.646854 0.025198 0.059512 255 220 0
0.648498 0.048633 0.074108 255 220 0
0.592960 -0.032263 0.022370 255 220 0
0.592232 0.079984 0.079602 255 220 0
0.543684 -0.033629 0.038303 255 220 0
0.595992 0.013920 0.012153 255 220 0
0.594743 0.016089 0.011762 255 220 0
0.644107 0.026937 0.043910 255 220 0
0.588800 0.080762 0.045101 255 220 0
0.637860 0.021823 0.035517 255 220 0
0.578053 0.058957 0.033254 255 220 0
0.607096 0.048258 0.014696 255 220 0
0.633405 0.096264 0.072616 255 220 0
0.597314 -0.011805 0.094225 255 220 0
0.613995 0.059106 0.100183 255 220 0
0.583875 0.063162 0.028170 255 220 0
0.646238 0.043786 0.078631 255 220 0
0.623953 0.099229 0.072397 255 220 0
0.628509 0.065394 0.027658 255 220 0
0.555143 -0.004711 0.045635 255 220 0
0.579108 0.055970 0.028285 255 220 0
0.593591 -0.007579 0.094474 255 220 0
0.570738 0.022433 0.019672 255 220 0
0.584262 0.040761 0.089497 255 220 0
0.625235 0.099582 0.059449 255 220 0
0.620644 -0.017955 0.074809 255 220 0
0.556959 -0.002263 0.028810 255 220 0
0.627139 -0.011455 0.071035 255 220 0
0.578146 0.025229 0.014888 255 220 0
0.617410 0.001495 0.024057 255 220 0
0.565345 -0.063168 0.039507 255 220 0
0.556371 -0.011919 0.055635 255 220 0
0.616046 -0.004011 0.025241 255 220 0
0.579150 0.046442 0.081815 255 220 0
0.566159 0.000798 0.072054 255 220 0
0.573427 0.042443 0.026312 255 220 0
0.590561 0.084600 0.062955 255 220 0
0.577946 -0.012913 0.085076 255 220 0
0.612577 0.066302 0.098988 255 220 0
0.573610 0.034037 0.021016 255 220 0
0.646180 0.036870 0.076787 255 220 0
0.648953 0.055689 0.051372 255 220 0
0.567107 0.026805 0.026989 255 220 0
0.591301 0.041375 0.095152 255 220 0
0.541056 -0.037589 0.026187 255 220 0
0.555800 -0.048323 0.015188 255 220 0
0.613310 0.086684 0.033930 255 220 0
0.591565 0.083429 0.044916 255 220 0
0.579340 -0.005435 0.087190 255 220 0
0.552661 -0.015316 0.024623 255 220 0
0.608755 -0.017447 0.089657 255 220 0
0.606887 0.065473 0.098327 255 220 0
0.613516 -0.030228 0.066272 255 220 0
0.575948 -0.055713 0.061231 255 220 0
0.547133 -0.032407 0.019126 255 220 0
0.588987 -0.032895 0.082352 255 220 0
0.570276 -0.048887 0.065340 255 220 0
0.564470 -0.004480 0.018127 255 220 0
0.559028 0.009146 0.046433 255 220 0
0.586079 0.007802 0.012280 255 220 0
0.601803 0.046020 0.013738 255 220 0
0.601857 0.029288 0.101181 255 220 0
0.609162 0.097162 0.055802 255 220 0
0.639809 0.085365 0.049489 255 220 0
0.577969 0.061263 0.036467 255 220 0
0.579222 0.069003 0.050406 255 220 0
0.589945 -0.047803 0.067227 255 220 0
0.622641 0.019471 0.022064 255 220 0
0.592066 0.078465 0.035339 255 220 0
0.580184 -0.056169 0.034867 255 220 0
0.553668 -0.056446 0.048804 255 220 0
0.579373 0.048978 0.081017 255 220 0
0.588477 0.076563 0.077357 255 220 0
0.596692 -0.019417 0.091056 255 220 0
0.562671 -0.018763 0.015217 255 220 0
0.579782 -0.046481 0.022215 255 220 0
0.646686 0.025058 0.057108 255 220 0
0.627098 -0.012818 0.068298 255 220 0
0.562639 -0.011402 0.067529 255 220 0
0.645866 0.073317 0.051147 255 220 0
0.618823 -0.012910 0.032603 255 220 0
0.572305 0.051611 0.059726 255 220 0
0.587344 -0.042825 0.024801 255 220 0
0.548158 -0.040579 0.015864 255 220 0
0.591229 -0.051135 0.041999 255 220 0
0.630773 0.054327 0.025659 255 220 0
0.636659 0.087110 0.082419 255 220 0
0.567241 0.037460 0.054144 255 220 0
0.596762 0.073717 0.026513 255 220 0
0.593193 -0.000365 0.095724 255 220 0
0.641319 0.011237 0.067363 255 220 0
0.629254 0.004419 0.086005 255 220 0
0.618066 -0.015375 0.033610 255 220 0
0.590330 0.071432 0.084856 255 220 0
0.611482 0.021077 0.101122 255 220 0
0.587212 -0.051687 0.035465 255 220 0
0.610213 0.062509 0.099529 255 220 0
0.588422 0.049226 0.091638 255 220 0
0.626839 0.092627 0.045065 255 220 0
0.622402 0.011726 0.095307 255 220 0
0.573159 0.056078 0.051207 255 220 0
0.643985 0.028551 0.077987 255 220 0
0.605545 0.053973 0.099952 255 220 0
0.621869 0.097724 0.076297 255 220 0
0.585241 0.035524 0.091173 255 220 0
0.631911 0.034252 0.025935 255 220 0
0.634766 0.068759 0.092419 255 220 0
0.559775 -0.002008 0.059465 255 220 0
0.564538 -0.030879 0.069432 255 220 0
0.547508 -0.048224 0.017037 255 220 0
0.604925 0.029535 0.012718 255 220 0
0.581701 -0.007154 0.012930 255 220 0
0.588256 -0.035903 0.021217 255 220 0
0.596082 -0.042765 0.069736 255 220 0
0.543372 -0.053217 0.038593 255 220 0
0.609777 -0.001621 0.096989 255 220 0
0.607188 0.002660 0.017915 255 220 0
0.617993 -0.008154 0.089229 255 220 0
0.554641 -0.049522 0.015662 255 220 0
0.565469 -0.016322 0.072462 255 220 0
0.560026 -0.061845 0.046948 255 220 0
0.565144 0.019721 0.063791 255 220 0
0.598431 0.000856 0.014793 255 220 0
0.597972 0.047038 0.098247 255 220 0
0.626093 0.059104 0.024078 255 220 0
0.650071 0.052341 0.069401 255 220 0
0.615671 0.094306 0.044239 255 220 0
0.580261 -0.020217 0.013798 255 220 0
0.592050 0.078031 0.081564 255 220 0
0.628012 -0.004715 0.079156 255 220 0
0.603079 -0.018171 0.091359 255 220 0
0.561585 0.011286 0.057967 255 220 0
0.594570 -0.032418 0.023531 255 220 0
0.621486 0.093888 0.082434 255 220 0
0.614932 0.005469 0.021182 255 220 0
0.620152 -0.006558 0.029866 255 220 0
0.593837 0.084679 0.043137 255 220 0
0.573625 -0.007949 0.082346 255 220 0
0.566408 -0.012874 0.015082 255 220 0
0.560703 0.014447 0.049869 255 220 0
0.565723 0.033373 0.049905 255 220 0
0.586636 0.079135 0.047517 255 220 0
0.636658 0.014239 0.037567 255 220 0
0.621070 0.085499 0.034343 255 220 0
0.650581 0.043861 0.063254 255 220 0
0.607283 -0.038356 0.059012 255 220 0
0.565559 0.013826 0.022849 255 220 0
0.628363 -0.005134 0.077982 255 220 0
0.560774 -0.006294 0.020495 255 220 0
0.572816 0.023804 0.018115 255 220 0
0.561303 -0.009224 0.064641 255 220 0
0.582025 0.042321 0.086922 255 220 0
0.592828 0.061378 0.092013 255 220 0
0.553641 -0.046192 0.014661 255 220 0
0.647339 0.035237 0.072860 255 220 0
0.642953 0.027701 0.079729 255 220 0
0.629225 0.069316 0.029656 255 220 0
0.629389 0.099218 0.064447 255 220 0
0.554284 -0.020483 0.019261 255 220 0
0.546903 -0.025514 0.038823 255 220 0
0.642367 0.021493 0.043484 255 220 0
0.579842 0.064680 0.036804 255 220 0
0.568107 -0.013998 0.014350 255 220 0
0.592226 -0.007509 0.093990 255 220 0
0.572803 0.031386 0.076393 255 220 0
0.569945 0.024918 0.072954 255 220 0
0.567488 -0.026875 0.013316 255 220 0
0.595625 0.086851 0.044860 255 220 0
0.618866 0.070007 0.024604 255 220 0
0.591719 0.082083 0.075415 255 220 0
0.568742 -0.011746 0.014502 255 220 0
0.567595 0.039942 0.046997 255 220 0
0.620545 -0.011362 0.033484 255 220 0
0.627082 0.085669 0.037418 255 220 0
0.649082 0.041769 0.070304 255 220 0
0.562621 -0.003275 0.065874 255 220 0
0.543065 -0.039835 0.041239 255 220 0
0.559730 0.010387 0.050168 255 220 0
0.601685 0.051091 0.014873 255 220 0
0.608209 -0.002386 0.019820 255 220 0
0.575781 0.023887 0.083246 255 220 0
0.572453 0.041817 0.069884 255 220 0
0.581926 0.055028 0.023983 255 220 0
0.603752 0.022271 0.012877 255 220 0
0.545071 -0.051487 0.043273 255 220 0
0.625204 -0.006801 0.035976 255 220 0
0.613461 0.085141 0.032530 255 220 0
0.580254 0.054995 0.025874 255 220 0
0.650743 0.056901 0.059133 255 220 0
0.576316 0.013182 0.085026 255 220 0
0.574023 0.057277 0.044721 255 220 0
0.547123 -0.025985 0.024196 255 220 0
0.623127 0.056902 0.098978 255 220 0
0.628706 0.081345 0.035358 255 220 0
0.646455 0.050539 0.044680 255 220 0
0.623021 -0.020908 0.060923 255 220 0
0.563265 0.002541 0.065735 255 220 0
0.569767 0.029867 0.070107 255 220 0
0.589367 0.082381 0.067403 255 220 0
0.590598 0.028782 0.011684 255 220 0
0.589764 0.070396 0.028431 255 220 0
0.605278 -0.032898 0.075689 255 220 0
0.603459 -0.041924 0.046473 255 220 0
0.574332 0.040821 0.074877 255 220 0
0.591934 0.024336 0.011360 255 220 0
0.589130 -0.042834 0.026286 255 220 0
0.617942 0.047647 0.100939 255 220 0
0.625319 -0.017702 0.052821 255 220 0
0.543650 -0.031410 0.035063 255 220 0
0.616836 0.030853 0.017032 255 220 0
0.606296 0.093525 0.046449 255 220 0
0.577124 0.065085 0.051940 255 220 0
0.638427 0.023734 0.035488 255 220 0
0.625755 0.097854 0.075546 255 220 0
0.545752 -0.025781 0.029938 255 220 0
0.596973 0.067030 0.021579 255 220 0
0.605825 0.090803 0.079978 255 220 0
0.643152 0.032363 0.081343 255 220 0
0.627612 0.076400 0.094108 255 220 0
0.593033 -0.050922 0.050790 255 220 0
0.637850 0.013925 0.039715 255 220 0
0.623639 0.058598 0.098686 255 220 0
0.630026 -0.007443 0.045735 255 220 0
0.635390 0.000012 0.067638 255 220 0
0.621225 -0.019491 0.043089 255 220 0
0.557322 -0.008884 0.056550 255 220 0
0.586714 -0.054923 0.046270 255 220 0
0.620824 0.100183 0.060634 255 220 0
0.553891 -0.014066 0.050522 255 220 0
0.585210 -0.050813 0.065795 255 220 0
0.564920 -0.062441 0.034386 255 220 0
0.592683 0.086053 0.050110 255 220 0
0.569093 0.003251 0.016942 255 220 0
0.637458 0.094646 0.060792 255 220 0
0.624569 -0.004746 0.084475 255 220 0
0.600768 0.045925 0.099557 255 220 0
0.567620 0.039206 0.041291 255 220 0
0.624416 -0.000598 0.030767 255 220 0
0.618027 -0.025407 0.045639 255 220 0
0.593629 0.048625 0.015074 255 220 0
0.595126 -0.013048 0.016634 255 220 0
0.596341 0.009215 0.098138 255 220 0
0.577326 0.046707 0.078154 255 220 0
0.621547 0.070510 0.097457 255 220 0
0.619988 0.044636 0.100732 255 220 0
0.557488 0.003180 0.034775 255 220 0
0.569686 -0.041168 0.069456 255 220 0
0.614371 0.078690 0.027903 255 220 0
0.594687 -0.042222 0.031328 255 220 0
0.567712 -0.006271 0.075518 255 220 0
0.582969 0.042385 0.016914 255 220 0
0.619854 0.087311 0.035516 255 220 0
0.568673 0.043039 0.052130 255 220 0
0.601101 0.010681 0.013786 255 220 0
0.589588 0.076267 0.035476 255 220 0
0.599582 0.025577 0.100454 255 220 0
0.607658 -0.023431 0.085394 255 220 0
0.569433 -0.033094 0.013735 255 220 0
0.644238 0.017840 0.065999 255 220 0
0.580486 -0.035560 0.078096 255 220 0
0.641649 0.051093 0.086902 255 220 0
0.638222 0.023026 0.085400 255 220 0
0.636894 0.006369 0.074570 255 220 0
0.561198 0.014899 0.033746 255 220 0
0.578575 0.065159 0.065342 255 220 0
0.600493 -0.045130 0.050621 255 220 0
0.623355 -0.018969 0.065944 255 220 0
0.611829 0.093492 0.079924 255 220 0
0.545426 -0.056217 0.038261 255 220 0
0.593293 -0.046733 0.035677 255 220 0
0.646530 0.036154 0.045161 255 220 0
0.576403 0.022664 0.084163 255 220 0
0.565720 0.006889 0.069838 255 220 0
0.551975 -0.015778 0.045795 255 220 0
0.606961 -0.023764 0.085591 255 220 0
0.593666 -0.050467 0.048980 255 220 0
0.604465 -0.019637 0.090097 255 220 0
0.642282 0.011674 0.059194 255 220 0
0.562834 0.006255 0.063686 255 220 0
0.557430 -0.014973 0.058722 255 220 0
0.602126 0.012019 0.013860 255 220 0
0.549399 -0.059751 0.030677 255 220 0
0.624875 0.068548 0.097081 255 220 0
0.602817 0.077182 0.091673 255 220 0
0.570151 -0.001366 0.078733 255 220 0
0.577994 -0.057852 0.036252 255 220 0
0.603886 0.058660 0.098794 255 220 0
0.603655 0.083575 0.087308 255 220 0
0.592257 0.082465 0.041370 255 220 0
0.607902 -0.002623 0.019727 255 220 0
0.629530 0.047801 0.023761 255 220 0
0.551851 -0.038954 0.053775 255 220 0
0.597798 -0.045669 0.060592 255 220 0
0.573197 0.027595 0.078632 255 220 0
0.564000 -0.014379 0.070232 255 220 0
0.570427 -0.027363 0.013354 255 220 0
0.603636 -0.002060 0.097700 255 220 0
0.617353 0.076372 0.095971 255 220 0
0.579004 -0.010756 0.086189 255 220 0
0.611681 0.094026 0.044373 255 220 0
0.635978 0.008981 0.079637 255 220 0
0.635741 0.017724 0.034476 255 220 0
0.556613 -0.021920 0.058769 255 220 0
0.587602 0.043222 0.015149 255 220 0
0.604113 0.095141 0.056632 255 220 0
0.629561 -0.005456 0.041843 255 220 0
0.600620 0.016537 0.100163 255 220 0
0.579326 0.024551 0.014221 255 220 0
0.617942 0.057665 0.019790 255 220 0
0.592236 -0.030211 0.020938 255 220 0
0.590672 -0.052134 0.044755 255 220 0
0.591464 0.085458 0.053041 255 220 0
0.596784 0.087753 0.044930 255 220 0
0.606682 -0.037850 0.043794 255 220 0
0.626386 0.066414 0.026769 255 220 0
0.583951 0.064029 0.080581 255 220 0
0.568196 -0.010175 0.076240 255 220 0
0.571822 -0.007597 0.080602 255 220 0
0.606990 0.050817 0.015183 255 220 0
0.628500 0.098897 0.070061 255 220 0
0.584571 0.052283 0.020192 255 220 0
0.631848 0.021337 0.028737 255 220 0
0.637139 0.086526 0.047017 255 220 0
0.633866 0.048069 0.094219 255 220 0
0.635063 0.028412 0.091009 255 220 0
0.618673 -0.006871 0.028658 255 220 0
0.615845 0.062324 0.020489 255 220 0
0.571163 0.050483 0.053310 255 220 0
0.579538 0.042763 0.083789 255 220 0
0.562680 0.022922 0.046708 255 220 0
0.628271 0.033848 0.023200 255 220 0
0.609896 0.079896 0.093026 255 220 0
0.643397 0.059487 0.040571 255 220 0
0.644279 0.049812 0.083040 255 220 0
0.602490 0.048792 0.099787 255 220 0
0.629030 0.098816 0.060055 255 220 0
0.624466 0.100326 0.064873 255 220 0
0.586749 0.054781 0.088663 255 220 0
0.591852 -0.013829 0.015608 255 220 0
0.615084 0.035901 0.102020 255 220 0
0.588891 0.081168 0.045971 255 220 0
0.637105 0.001254 0.059592 255 220 0
0.621733 0.059225 0.099138 255 220 0
0.599800 0.034732 0.100318 255 220 0
0.592792 0.065258 0.022263 255 220 0
0.577801 0.035920 0.017902 255 220 0
0.632880 0.032367 0.027075 255 220 0
0.601575 -0.019781 0.090710 255 220 0
0.601418 -0.022847 0.023326 255 220 0
0.619158 0.076249 0.095963 255 220 0
0.633890 0.017743 0.032177 255 220 0
0.620822 0.092541 0.084055 255 220 0
0.563442 -0.023135 0.069457 255 220 0
0.604988 0.032998 0.101838 255 220 0
0.596903 0.021376 0.011587 255 220 0
0.642490 0.068503 0.085025 255 220 0
0.571672 -0.006738 0.080493 255 220 0
0.645401 0.069145 0.080101 255 220 0
0.567391 0.027729 0.027039 255 220 0
0.609382 0.027119 0.014244 255 220 0
0.642433 0.036894 0.037357 255 220 0
0.636810 0.071515 0.036743 255 220 0
0.584806 0.077461 0.062553 255 220 0
0.599495 -0.044644 0.059734 255 220 0
0.596673 -0.044947 0.038064 255 220 0
0.641178 0.065428 0.039101 255 220 0
0.602167 -0.042682 0.044833 255 220 0
0.604264 0.094996 0.066775 255 220 0
0.571189 0.033127 0.071774 255 220 0
0.551130 -0.013487 0.032919 255 220 0
0.580079 -0.009845 0.087063 255 220 0
0.585052 0.078134 0.060533 255 220 0
0.615466 0.051492 0.100918 255 220 0
0.608021 -0.030435 0.076073 255 220 0
0.631108 0.001214 0.080473 255 220 0
0.633045 0.072617 0.092684 255 220 0
0.569351 -0.053735 0.061248 255 220 0
0.634728 0.011913 0.084067 255 220 0
0.633166 -0.001886 0.045391 255 220 0
0.589020 0.026922 0.011737 255 220 0
0.547940 -0.024182 0.040831 255 220 0
0.603139 -0.042870 0.050800 255 220 0
0.631717 0.024730 0.027671 255 220 0
0.646176 0.024087 0.066499 255 220 0
0.594982 0.064795 0.092449 255 220 0
0.598085 0.022920 0.011662 255 220 0
0.578692 -0.035821 0.016596 255 220 0
0.609929 0.097465 0.068567 255 220 0
0.594891 -0.007619 0.015322 255 220 0
0.605160 0.050684 0.014934 255 220 0
0.647094 0.035382 0.046985 255 220 0
0.586067 0.046965 0.017029 255 220 0
0.622096 -0.022474 0.058728 255 220 0
