ply
format ascii 1.0
element vertex 1024
property float x
property float y
property float z
property uchar red
property uchar green
property uchar blue
end_header
0.631095 0.009328 0.033652 255 220 0
0.584778 -0.055554 0.045960 255 220 0
0.627380 0.002933 0.032818 255 220 0
0.571786 0.049937 0.054665 255 220 0
0.642906 0.080031 0.079286 255 220 0
0.607898 -0.023842 0.082074 255 220 0
0.570419 0.043745 0.061083 255 220 0
0.600570 0.067810 0.095892 255 220 0
0.616533 0.097429 0.074367 255 220 0
0.622449 -0.011859 0.077377 255 220 0
0.593879 -0.047760 0.039280 255 220 0
0.566251 0.001692 0.075620 255 220 0
0.603524 0.091574 0.047825 255 220 0
0.625661 0.076829 0.030572 255 220 0
0.566354 0.032004 0.056130 255 220 0
0.607666 0.067255 0.020382 255 220 0
0.622695 -0.019174 0.063938 255 220 0
0.576457 -0.029081 0.081205 255 220 0
0.588841 -0.034047 0.019474 255 220 0
0.590509 -0.019444 0.015246 255 220 0
0.568382 0.038744 0.045188 255 220 0
0.632661 0.091631 0.049346 255 220 0
0.629421 0.007264 0.086410 255 220 0
0.635541 0.000904 0.065759 255 220 0
0.632088 -0.004381 0.049167 255 220 0
0.562186 0.018040 0.043319 255 220 0
0.610971 0.023665 0.014109 255 220 0
0.561943 -0.047146 0.061560 255 220 0
0.568275 0.037961 0.058118 255 220 0
0.581542 -0.007825 0.091058 255 220 0
0.584987 -0.030188 0.015816 255 220 0
0.597354 0.022638 0.101373 255 220 0
0.576719 0.061455 0.061541 255 220 0
0.570134 0.041081 0.063547 255 220 0
0.649598 0.045984 0.069588 255 220 0
0.644544 0.061046 0.043301 255 220 0
0.623380 0.097377 0.054066 255 220 0
0.596058 0.006245 0.099884 255 220 0
0.545770 -0.054948 0.037895 255 220 0
0.554330 -0.060926 0.026293 255 220 0
0.632185 0.064600 0.029865 255 220 0
0.631854 -0.001051 0.043248 255 220 0
0.590923 0.043724 0.014338 255 220 0
0.643228 0.053458 0.039120 255 220 0
0.581947 0.072507 0.057834 255 220 0
0.634907 0.011579 0.082203 255 220 0
0.579541 0.029822 0.015563 255 220 0
0.592034 0.081371 0.077865 255 220 0
0.612520 0.025006 0.102052 255 220 0
0.602188 0.066171 0.097168 255 220 0
0.638484 0.052290 0.032230 255 220 0
0.606445 -0.038851 0.054413 255 220 0
0.634020 0.081186 0.088434 255 220 0
0.643880 0.078547 0.051499 255 220 0
0.627788 -0.007614 0.073118 255 220 0
0.609441 0.021101 0.013819 255 220 0
0.565840 0.004934 0.074097 255 220 0
0.541409 -0.039566 0.025097 255 220 0
0.550623 -0.045601 0.012653 255 220 0
0.583997 0.032808 0.013878 255 220 0
0.594189 0.035143 0.099720 255 220 0
0.610513 0.052665 0.101311 255 220 0
0.566049 -0.004619 0.016787 255 220 0
0.615393 -0.029387 0.057845 255 220 0
0.645152 0.076478 0.052797 255 220 0
0.615744 0.078307 0.027889 255 220 0
0.580194 -0.042858 0.074437 255 220 0
0.556427 -0.063081 0.033226 255 220 0
0.552114 -0.025173 0.017815 255 220 0
0.637193 0.079049 0.041470 255 220 0
0.545900 -0.037470 0.016955 255 220 0
0.582311 0.042449 0.018384 255 220 0
0.637681 0.068483 0.036513 255 220 0
0.634176 -0.001890 0.063988 255 220 0
0.573893 -0.058017 0.028806 255 220 0
0.642667 0.051857 0.085101 255 220 0
0.614768 -0.019754 0.078846 255 220 0
0.643266 0.032136 0.080156 255 220 0
0.588912 -0.017430 0.092105 255 220 0
0.585461 0.046443 0.091195 255 220 0
0.565250 0.024601 0.035864 255 220 0
0.613885 0.088363 0.036626 255 220 0
0.619573 0.069687 0.024200 255 220 0
0.628010 0.097542 0.057256 255 220 0
0.582410 0.072772 0.053118 255 220 0
0.619128 0.065733 0.098824 255 220 0
0.585859 -0.045581 0.071155 255 220 0
0.560706 -0.052914 0.015142 255 220 0
0.572906 -0.018637 0.011860 255 220 0
0.582200 0.051819 0.023857 255 220 0
0.577665 0.054560 0.075937 255 220 0
0.610476 -0.032953 0.044858 255 220 0
0.590183 -0.016169 0.014320 255 220 0
0.590744 -0.050345 0.038976 255 220 0
0.579005 0.036248 0.018365 255 220 0
0.609490 0.032456 0.012964 255 220 0
0.587287 -0.033357 0.082800 255 220 0
0.599056 -0.028157 0.023898 255 220 0
0.559398 -0.047490 0.059148 255 220 0
0.602412 0.016330 0.101556 255 220 0
0.642384 0.018724 0.072789 255 220 0
0.575032 0.026470 0.018134 255 220 0
0.646383 0.031752 0.048465 255 220 0
0.618622 0.002080 0.093240 255 220 0
0.636559 0.001339 0.057218 255 220 0
0.579458 0.067333 0.062882 255 220 0
0.588824 -0.049008 0.063689 255 220 0
0.596061 -0.035205 0.025827 255 220 0
0.590714 -0.003600 0.012454 255 220 0
0.555026 -0.029409 0.057879 255 220 0
0.612929 0.074063 0.096902 255 220 0
0.568765 -0.004611 0.015143 255 220 0
0.598831 0.016265 0.101264 255 220 0
0.577353 0.055060 0.034633 255 220 0
0.596684 -0.047362 0.050649 255 220 0
0.566363 0.033145 0.050858 255 220 0
0.571617 0.031726 0.076794 255 220 0
0.588113 -0.005644 0.095229 255 220 0
0.622764 0.076713 0.095322 255 220 0
0.562653 -0.030223 0.011503 255 220 0
0.615673 -0.002251 0.093045 255 220 0
0.605766 0.044390 0.013235 255 220 0
0.647193 0.038732 0.048112 255 220 0
0.642428 0.017183 0.049672 255 220 0
0.639831 0.045635 0.033297 255 220 0
0.586656 -0.006302 0.012120 255 220 0
0.573889 0.043616 0.074781 255 220 0
0.579082 0.045849 0.023539 255 220 0
0.620817 0.054730 0.019668 255 220 0
0.612278 -0.024502 0.076007 255 220 0
0.568064 0.030720 0.066346 255 220 0
0.610706 0.003709 0.018792 255 220 0
0.647678 0.043873 0.048972 255 220 0
0.575764 0.024010 0.085321 255 220 0
0.608595 0.018522 0.013871 255 220 0
0.604944 0.086759 0.037478 255 220 0
0.636542 0.003395 0.067805 255 220 0
0.550311 -0.021503 0.024089 255 220 0
0.626043 0.035126 0.098482 255 220 0
0.648962 0.041954 0.070392 255 220 0
0.601949 -0.023025 0.023422 255 220 0
0.609348 0.071229 0.022718 255 220 0
0.629935 -0.003099 0.041654 255 220 0
0.578770 -0.035894 0.078855 255 220 0
0.633713 0.087010 0.044371 255 220 0
0.637722 0.020818 0.084027 255 220 0
0.544289 -0.053770 0.036120 255 220 0
0.631026 0.091081 0.082600 255 220 0
0.569914 0.016191 0.078872 255 220 0
0.559956 0.000731 0.059285 255 220 0
0.600843 0.030793 0.011104 255 220 0
0.640900 0.010389 0.063232 255 220 0
0.646752 0.078442 0.068377 255 220 0
0.587647 0.080576 0.063198 255 220 0
0.549401 -0.025107 0.042249 255 220 0
0.636549 0.032007 0.031093 255 220 0
0.584603 0.070897 0.076970 255 220 0
0.619429 -0.012586 0.080917 255 220 0
0.607907 0.077012 0.026774 255 220 0
0.557259 -0.044174 0.011323 255 220 0
0.612455 0.035854 0.014016 255 220 0
0.572406 0.045252 0.036342 255 220 0
0.616745 -0.027267 0.061203 255 220 0
0.587467 0.063472 0.087098 255 220 0
0.584782 0.046758 0.018571 255 220 0
0.578000 0.002433 0.089246 255 220 0
0.569143 0.035894 0.065331 255 220 0
0.635373 0.042236 0.028307 255 220 0
0.620691 -0.011191 0.080726 255 220 0
0.647684 0.065152 0.052586 255 220 0
0.581728 -0.056202 0.036855 255 220 0
0.587844 -0.027514 0.086875 255 220 0
0.598499 -0.000922 0.014092 255 220 0
0.579433 -0.058332 0.046042 255 220 0
0.616338 0.097981 0.055567 255 220 0
0.624311 0.004538 0.089972 255 220 0
0.595444 -0.045171 0.036661 255 220 0
0.594550 0.029863 0.100361 255 220 0
0.545339 -0.050976 0.041253 255 220 0
0.641449 0.048605 0.035674 255 220 0
0.551870 -0.016441 0.027559 255 220 0
0.635188 -0.000469 0.053143 255 220 0
0.609291 -0.025359 0.078694 255 220 0
0.540718 -0.048521 0.030687 255 220 0
0.634896 0.035778 0.028493 255 220 0
0.627755 0.097828 0.057885 255 220 0
0.624852 0.077167 0.094637 255 220 0
0.561725 -0.034118 0.066881 255 220 0
0.569534 -0.062080 0.041914 255 220 0
0.638439 0.007658 0.069443 255 220 0
0.571035 -0.022969 0.011705 255 220 0
0.623622 0.056937 0.098937 255 220 0
0.650466 0.047721 0.064133 255 220 0
0.549855 -0.043797 0.050133 255 220 0
0.589641 0.041138 0.013966 255 220 0
0.589140 0.047902 0.094129 255 220 0
0.605123 0.066683 0.020163 255 220 0
0.616517 -0.022583 0.072336 255 220 0
0.642939 0.027355 0.042357 255 220 0
0.609001 0.072168 0.023313 255 220 0
0.641500 0.016165 0.072443 255 220 0
0.605916 0.032927 0.012002 255 220 0
0.583304 -0.046298 0.071160 255 220 0
0.554369 -0.010873 0.047678 255 220 0
0.633289 0.035570 0.026995 255 220 0
0.563757 -0.017188 0.072694 255 220 0
0.634057 0.094897 0.073923 255 220 0
0.624618 -0.009145 0.077185 255 220 0
0.607870 0.036227 0.103064 255 220 0
0.571907 -0.037405 0.074209 255 220 0
0.550656 -0.034857 0.013956 255 220 0
0.596261 -0.041356 0.069227 255 220 0
0.624281 0.037753 0.019957 255 220 0
0.561666 -0.055913 0.055122 255 220 0
0.574497 0.027119 0.018917 255 220 0
0.612226 0.052700 0.015995 255 220 0
0.587099 0.079625 0.055237 255 220 0
0.645616 0.061510 0.045699 255 220 0
0.645162 0.029554 0.074457 255 220 0
0.543422 -0.044355 0.018191 255 220 0
0.592320 0.065052 0.023920 255 220 0
0.632584 0.073729 0.092504 255 220 0
0.552571 -0.013295 0.032548 255 220 0
0.643270 0.061338 0.084243 255 220 0
0.627491 0.008087 0.030171 255 220 0
0.546031 -0.033395 0.019553 255 220 0
0.597137 -0.021036 0.019172 255 220 0
0.600277 0.037067 0.011675 255 220 0
0.556333 -0.006201 0.028956 255 220 0
0.585386 -0.022733 0.088681 255 220 0
0.638913 0.007301 0.066648 255 220 0
0.590751 -0.015326 0.093414 255 220 0
0.607890 0.038350 0.102951 255 220 0
0.637875 0.072499 0.088834 255 220 0
0.562119 0.009276 0.061549 255 220 0
0.612359 0.047037 0.102014 255 220 0
0.546729 -0.041350 0.014893 255 220 0
0.634864 0.091424 0.079203 255 220 0
0.557376 -0.046653 0.011813 255 220 0
0.546340 -0.034091 0.040674 255 220 0
0.560431 -0.049910 0.058655 255 220 0
0.580181 0.018163 0.012946 255 220 0
0.561706 0.010194 0.059435 255 220 0
0.562372 -0.022326 0.070240 255 220 0
0.628392 0.010519 0.089606 255 220 0
0.542285 -0.038297 0.023269 255 220 0
0.631707 0.080091 0.036616 255 220 0
0.616568 0.096409 0.050873 255 220 0
0.600766 -0.034926 0.074694 255 220 0
0.543579 -0.033850 0.026908 255 220 0
0.575186 -0.060098 0.045411 255 220 0
0.622242 0.005508 0.026450 255 220 0
0.619979 -0.019425 0.070880 255 220 0
0.597414 0.074673 0.028617 255 220 0
0.602203 0.013240 0.012473 255 220 0
0.558712 -0.054340 0.015774 255 220 0
0.644012 0.022378 0.049041 255 220 0
0.645357 0.077324 0.054117 255 220 0
0.611786 0.097333 0.069838 255 220 0
0.581637 0.064014 0.077423 255 220 0
0.569159 -0.046334 0.014600 255 220 0
0.635998 0.075420 0.037983 255 220 0
0.607071 0.034912 0.012356 255 220 0
0.646216 0.060294 0.046742 255 220 0
0.615985 0.031347 0.015684 255 220 0
0.576011 0.031927 0.019381 255 220 0
0.550911 -0.033739 0.014224 255 220 0
0.612103 0.092823 0.043902 255 220 0
0.626601 0.071731 0.028649 255 220 0
0.540839 -0.049533 0.029408 255 220 0
0.563994 -0.004242 0.072297 255 220 0
0.645907 0.072339 0.051627 255 220 0
0.645461 0.038719 0.078326 255 220 0
0.576609 0.058203 0.067668 255 220 0
0.640771 0.033860 0.036269 255 220 0
0.571887 -0.022432 0.080302 255 220 0
0.640046 0.008125 0.057720 255 220 0
0.579612 0.036457 0.017923 255 220 0
0.645841 0.063250 0.046797 255 220 0
0.573497 0.045614 0.071406 255 220 0
0.637184 0.022462 0.085627 255 220 0
0.549128 -0.057574 0.040155 255 220 0
0.543157 -0.044238 0.018603 255 220 0
0.604793 0.074805 0.025619 255 220 0
0.635123 0.053751 0.093099 255 220 0
0.554010 -0.040390 0.056065 255 220 0
0.647530 0.041847 0.048677 255 220 0
0.626645 0.059659 0.097645 255 220 0
0.577939 0.030291 0.016909 255 220 0
0.570267 -0.014805 0.080698 255 220 0
0.650549 0.051517 0.062788 255 220 0
0.574458 -0.047752 0.069002 255 220 0
0.633353 0.067394 0.093402 255 220 0
0.600288 0.080523 0.032709 255 220 0
0.568444 -0.033479 0.073435 255 220 0
0.542239 -0.041979 0.036027 255 220 0
0.571629 -0.006422 0.083015 255 220 0
0.612331 0.087933 0.087579 255 220 0
0.592141 -0.014910 0.093882 255 220 0
0.593199 0.000838 0.012352 255 220 0
0.547379 -0.027952 0.022815 255 220 0
0.592489 -0.015745 0.015122 255 220 0
0.633028 0.016325 0.032485 255 220 0
0.615180 -0.022002 0.075341 255 220 0
0.641629 0.086264 0.054797 255 220 0
0.641359 0.011152 0.057016 255 220 0
0.633361 0.082285 0.088243 255 220 0
0.604321 0.008640 0.100542 255 220 0
0.600185 -0.044469 0.050003 255 220 0
0.582164 0.024422 0.091956 255 220 0
0.604210 0.069807 0.096699 255 220 0
0.611202 0.048744 0.101845 255 220 0
0.579847 0.038167 0.018475 255 220 0
0.611340 -0.024856 0.076805 255 220 0
0.635457 0.014396 0.083474 255 220 0
0.581952 0.010020 0.092508 255 220 0
0.593131 -0.030947 0.084289 255 220 0
0.603066 -0.005722 0.017386 255 220 0
0.561931 0.013248 0.057824 255 220 0
0.633373 0.065874 0.093601 255 220 0
0.608247 -0.036377 0.059580 255 220 0
0.612437 0.090489 0.084655 255 220 0
0.540232 -0.044028 0.027029 255 220 0
0.575898 0.057461 0.042986 255 220 0
0.590443 0.044917 0.014882 255 220 0
0.593281 0.082726 0.043782 255 220 0
0.577788 -0.009947 0.087981 255 220 0
0.555256 -0.006009 0.035463 255 220 0
0.579689 0.066557 0.046820 255 220 0
0.568883 -0.023991 0.077153 255 220 0
0.604467 0.070353 0.096581 255 220 0
0.553207 -0.025268 0.016728 255 220 0
0.632319 0.011626 0.085896 255 220 0
0.564912 -0.005525 0.074224 255 220 0
0.596298 0.088667 0.054480 255 220 0
0.554368 -0.010919 0.047730 255 220 0
0.565245 -0.010639 0.015356 255 220 0
0.606510 0.060331 0.099694 255 220 0
0.584289 0.017622 0.094207 255 220 0
0.597912 -0.002188 0.098678 255 220 0
0.650397 0.057170 0.064710 255 220 0
0.612567 0.097559 0.070096 255 220 0
0.639545 0.007566 0.054705 255 220 0
0.648072 0.054840 0.050775 255 220 0
0.639700 0.028862 0.084753 255 220 0
0.639962 0.032885 0.085717 255 220 0
0.547984 -0.029208 0.041301 255 220 0
0.645419 0.061223 0.045167 255 220 0
0.642413 0.023198 0.076814 255 220 0
0.540849 -0.046727 0.032620 255 220 0
0.633957 0.082625 0.087645 255 220 0
0.575797 0.041992 0.080226 255 220 0
0.577892 0.034916 0.018814 255 220 0
0.612380 -0.023865 0.076752 255 220 0
0.614170 0.042372 0.014983 255 220 0
0.636909 0.019450 0.084478 255 220 0
0.640948 0.024167 0.040238 255 220 0
0.626405 0.082652 0.091419 255 220 0
0.600508 -0.032848 0.028437 255 220 0
0.545966 -0.041656 0.043658 255 220 0
0.566814 -0.055477 0.058911 255 220 0
0.622292 0.052336 0.099712 255 220 0
0.637685 0.035952 0.089241 255 220 0
0.559362 -0.059821 0.022375 255 220 0
0.627974 0.094479 0.050266 255 220 0
0.581548 -0.027958 0.084552 255 220 0
0.564474 0.008133 0.069713 255 220 0
0.567815 0.019119 0.023957 255 220 0
0.570035 0.021654 0.021941 255 220 0
0.595163 0.088308 0.064390 255 220 0
0.565179 0.028800 0.053074 255 220 0
0.609049 0.096175 0.055446 255 220 0
0.556400 -0.058615 0.020439 255 220 0
0.643171 0.032317 0.040677 255 220 0
0.580340 0.068694 0.064810 255 220 0
0.562726 -0.008093 0.017946 255 220 0
0.584625 -0.032720 0.082858 255 220 0
0.641634 0.053510 0.086570 255 220 0
0.580285 0.069289 0.061613 255 220 0
0.608568 0.094543 0.074590 255 220 0
0.602793 0.092075 0.073289 255 220 0
0.601568 0.020449 0.011362 255 220 0
0.561225 -0.011710 0.067772 255 220 0
0.586097 0.040785 0.015304 255 220 0
0.563836 -0.008939 0.072625 255 220 0
0.584744 0.033806 0.013794 255 220 0
0.582060 0.057045 0.083283 255 220 0
0.647307 0.070729 0.073624 255 220 0
0.581615 -0.019074 0.012477 255 220 0
0.564501 -0.061680 0.028216 255 220 0
0.564799 -0.040720 0.011633 255 220 0
0.604639 0.078278 0.092547 255 220 0
0.573637 -0.060455 0.037810 255 220 0
0.574560 0.011112 0.014835 255 220 0
0.568478 0.036311 0.039175 255 220 0
0.630008 0.043478 0.096565 255 220 0
0.625570 -0.004266 0.081277 255 220 0
0.633772 0.046764 0.026931 255 220 0
0.564185 0.006881 0.069423 255 220 0
0.625940 -0.014976 0.062621 255 220 0
0.592528 0.073429 0.086715 255 220 0
0.607343 0.063868 0.018744 255 220 0
0.616482 0.046690 0.101583 255 220 0
0.592421 0.001039 0.012192 255 220 0
0.561739 0.016684 0.050877 255 220 0
0.628215 0.091244 0.083896 255 220 0
0.571173 0.041494 0.067222 255 220 0
0.572201 0.051154 0.052917 255 220 0
0.623474 -0.018991 0.060155 255 220 0
0.541453 -0.049580 0.032896 255 220 0
0.641996 0.059884 0.038651 255 220 0
0.630170 0.049916 0.024456 255 220 0
0.569088 0.041770 0.048949 255 220 0
0.611963 -0.028949 0.069414 255 220 0
0.633371 0.009567 0.082930 255 220 0
0.612030 -0.009868 0.024975 255 220 0
0.634202 0.090509 0.049309 255 220 0
0.586903 -0.004053 0.012000 255 220 0
0.563231 -0.054956 0.017565 255 220 0
0.562944 -0.011169 0.016531 255 220 0
0.637072 0.010697 0.077436 255 220 0
0.642334 0.061914 0.085518 255 220 0
0.634851 0.002068 0.070939 255 220 0
0.576539 0.058651 0.066709 255 220 0
0.583744 -0.022743 0.013524 255 220 0
0.552838 -0.023535 0.051369 255 220 0
0.604695 0.025812 0.011752 255 220 0
0.639878 0.019633 0.041044 255 220 0
0.612175 0.063879 0.099589 255 220 0
0.575167 -0.000922 0.013175 255 220 0
0.589793 0.028919 0.097767 255 220 0
0.599614 0.037521 0.011725 255 220 0
0.559941 0.007334 0.054271 255 220 0
0.587276 0.079564 0.053443 255 220 0
0.576338 0.057078 0.068168 255 220 0
0.571631 -0.060540 0.033285 255 220 0
0.581446 -0.056784 0.038758 255 220 0
0.643967 0.081354 0.076100 255 220 0
0.627381 0.060218 0.024886 255 220 0
0.548156 -0.057179 0.022497 255 220 0
0.575169 0.043000 0.027257 255 220 0
0.606669 0.020513 0.012805 255 220 0
0.625247 0.019126 0.023982 255 220 0
0.638882 0.016404 0.041355 255 220 0
0.576269 0.013818 0.014272 255 220 0
0.603657 -0.041387 0.050517 255 220 0
0.578227 -0.057573 0.034170 255 220 0
0.609805 -0.035038 0.049205 255 220 0
0.579405 -0.057841 0.051530 255 220 0
0.637873 0.073541 0.039059 255 220 0
0.568154 0.032869 0.064527 255 220 0
0.645744 0.023453 0.062301 255 220 0
0.636070 0.075949 0.038346 255 220 0
0.629622 0.034409 0.096177 255 220 0
0.627499 -0.002386 0.080424 255 220 0
0.560290 -0.054567 0.016285 255 220 0
0.636706 0.093891 0.071828 255 220 0
0.566366 0.032140 0.055877 255 220 0
0.616998 -0.027566 0.054326 255 220 0
0.546296 -0.042733 0.044512 255 220 0
0.603342 -0.004351 0.097756 255 220 0
0.570062 0.013387 0.018699 255 220 0
0.596317 -0.028778 0.085231 255 220 0
0.574569 -0.043640 0.015820 255 220 0
0.618599 0.065728 0.098901 255 220 0
0.613067 0.077936 0.027332 255 220 0
0.551865 -0.017030 0.043159 255 220 0
0.591376 0.039962 0.097353 255 220 0
0.552825 -0.012324 0.037108 255 220 0
0.568841 -0.061504 0.032728 255 220 0
0.587944 -0.033728 0.018762 255 220 0
0.622070 0.077827 0.029390 255 220 0
0.548030 -0.039516 0.046840 255 220 0
0.644484 0.022697 0.050444 255 220 0
0.607725 0.080056 0.029264 255 220 0
0.597425 0.089510 0.054264 255 220 0
0.616113 0.045806 0.016059 255 220 0
0.571178 0.047903 0.048953 255 220 0
0.602085 -0.031442 0.028964 255 220 0
0.574402 0.034056 0.022370 255 220 0
0.569814 0.044237 0.052369 255 220 0
0.565979 -0.029843 0.011369 255 220 0
0.621919 -0.015466 0.073364 255 220 0
0.616085 0.007603 0.097012 255 220 0
0.648867 0.067072 0.058668 255 220 0
0.585056 0.006548 0.094800 255 220 0
0.571775 0.042127 0.034290 255 220 0
0.556510 -0.002469 0.036062 255 220 0
0.554072 -0.060666 0.025693 255 220 0
0.640567 0.009208 0.059048 255 220 0
0.588531 -0.023406 0.089313 255 220 0
0.546731 -0.040931 0.044865 255 220 0
0.568661 0.015241 0.020904 255 220 0
0.587879 0.015166 0.096842 255 220 0
0.557311 -0.050774 0.055451 255 220 0
0.620342 -0.006758 0.085546 255 220 0
0.636681 0.061584 0.091598 255 220 0
0.629950 0.062331 0.095940 255 220 0
0.592039 -0.050489 0.043807 255 220 0
0.570066 0.041944 0.062047 255 220 0
0.600972 0.050773 0.014526 255 220 0
0.579745 0.050992 0.026322 255 220 0
0.620241 0.016826 0.020954 255 220 0
0.639307 0.011486 0.046747 255 220 0
0.604258 0.008710 0.014109 255 220 0
0.548416 -0.023262 0.029128 255 220 0
0.593891 -0.043536 0.031464 255 220 0
0.589802 0.078778 0.042573 255 220 0
0.591293 -0.002232 0.012395 255 220 0
0.608769 0.028182 0.012831 255 220 0
0.592410 0.083795 0.073832 255 220 0
0.580649 -0.018843 0.087821 255 220 0
0.640276 0.008803 0.061971 255 220 0
0.613402 -0.031758 0.055642 255 220 0
0.634866 0.001462 0.047439 255 220 0
0.577431 0.055762 0.035285 255 220 0
0.564124 0.003957 0.021874 255 220 0
0.570742 -0.042617 0.013807 255 220 0
0.598099 0.014139 0.011365 255 220 0
0.622257 -0.003176 0.030783 255 220 0
0.624420 0.054845 0.021619 255 220 0
0.616109 0.047809 0.101531 255 220 0
0.562958 -0.030055 0.069438 255 220 0
0.632430 0.086939 0.042999 255 220 0
0.592898 -0.014885 0.094018 255 220 0
0.631956 0.077585 0.091502 255 220 0
0.598559 0.047018 0.099829 255 220 0
0.614772 0.046275 0.015627 255 220 0
0.597849 0.090540 0.061020 255 220 0
0.615865 -0.028010 0.062244 255 220 0
0.600879 0.081538 0.087731 255 220 0
0.614412 -0.022890 0.036728 255 220 0
0.626460 0.025902 0.096837 255 220 0
0.573011 0.032035 0.023169 255 220 0
0.635491 0.007275 0.076936 255 220 0
0.591540 0.063031 0.091414 255 220 0
0.564623 -0.011409 0.074113 255 220 0
0.620867 0.004929 0.093042 255 220 0
0.605104 -0.016817 0.022822 255 220 0
0.600170 0.037289 0.011702 255 220 0
0.597462 0.045705 0.099614 255 220 0
0.572980 -0.029924 0.011957 255 220 0
0.613530 -0.014886 0.085511 255 220 0
0.636882 0.002007 0.056081 255 220 0
0.584528 0.055017 0.087460 255 220 0
0.628726 -0.005258 0.041734 255 220 0
0.603609 -0.040707 0.046055 255 220 0
0.575354 0.015472 0.086114 255 220 0
0.571806 0.014330 0.017371 255 220 0
0.610914 -0.032959 0.046221 255 220 0
0.582642 -0.033617 0.015830 255 220 0
0.591205 0.016488 0.098806 255 220 0
0.575483 -0.051535 0.065931 255 220 0
0.599242 0.018678 0.011072 255 220 0
0.644661 0.036672 0.079244 255 220 0
0.591109 -0.035000 0.021517 255 220 0
0.567740 0.023416 0.071356 255 220 0
0.559176 -0.055881 0.053186 255 220 0
0.575878 0.057231 0.042593 255 220 0
0.590524 -0.007362 0.012892 255 220 0
0.605464 0.046220 0.101834 255 220 0
0.561560 -0.059979 0.050511 255 220 0
0.575834 0.011399 0.086982 255 220 0
0.630520 0.097936 0.068050 255 220 0
0.595010 0.081228 0.082446 255 220 0
0.585180 -0.030345 0.084530 255 220 0
0.590196 -0.051560 0.054183 255 220 0
0.596012 -0.004924 0.097796 255 220 0
0.581506 0.068350 0.043469 255 220 0
0.628476 0.098802 0.066371 255 220 0
0.634241 0.096244 0.068150 255 220 0
0.574225 0.047629 0.033807 255 220 0
0.601422 0.017140 0.011673 255 220 0
0.612659 -0.008887 0.025027 255 220 0
0.584006 -0.011311 0.091879 255 220 0
0.575860 0.054177 0.070062 255 220 0
0.547039 -0.028890 0.037783 255 220 0
0.550322 -0.038087 0.013166 255 220 0
0.600851 -0.031455 0.027693 255 220 0
0.645058 0.021088 0.061214 255 220 0
0.553582 -0.010542 0.040898 255 220 0
0.600726 -0.042550 0.042678 255 220 0
0.596169 0.077813 0.087017 255 220 0
0.632065 0.064950 0.094518 255 220 0
0.610673 0.072505 0.023592 255 220 0
0.576934 0.018651 0.087425 255 220 0
0.570753 0.008196 0.081533 255 220 0
0.638388 0.091790 0.073618 255 220 0
0.644796 0.039997 0.080019 255 220 0
0.643188 0.020384 0.048461 255 220 0
0.615036 0.064709 0.020424 255 220 0
0.639603 0.036597 0.033952 255 220 0
0.576179 0.015098 0.087024 255 220 0
0.633702 0.011008 0.083579 255 220 0
0.605418 0.067562 0.020621 255 220 0
0.632986 -0.004432 0.061155 255 220 0
0.648907 0.035883 0.064274 255 220 0
0.636270 0.041756 0.091574 255 220 0
0.618446 0.044022 0.101406 255 220 0
0.573329 0.044793 0.071696 255 220 0
0.576294 0.054816 0.070881 255 220 0
0.577204 0.019895 0.087559 255 220 0
0.633195 0.023704 0.029792 255 220 0
0.601751 -0.033570 0.075683 255 220 0
0.621891 0.019242 0.021451 255 220 0
0.582573 -0.035449 0.080512 255 220 0
0.645192 0.053025 0.042979 255 220 0
0.598473 -0.045839 0.048601 255 220 0
0.639208 0.006422 0.060433 255 220 0
0.617095 0.099113 0.059896 255 220 0
0.610581 -0.029478 0.038585 255 220 0
0.626890 0.099020 0.062048 255 220 0
0.556400 -0.033518 0.011971 255 220 0
0.596265 -0.023337 0.019559 255 220 0
0.569727 -0.011613 0.013277 255 220 0
0.553813 -0.009649 0.039176 255 220 0
0.627873 0.060761 0.025390 255 220 0
0.639006 0.023662 0.037258 255 220 0
0.554332 -0.016414 0.051977 255 220 0
0.609176 -0.036109 0.051715 255 220 0
0.598214 0.061503 0.018858 255 220 0
0.568760 0.009532 0.018771 255 220 0
0.620147 0.085107 0.033916 255 220 0
0.574076 -0.055573 0.024871 255 220 0
0.642248 0.060276 0.039153 255 220 0
0.610419 0.063900 0.019047 255 220 0
0.627486 0.022644 0.095324 255 220 0
0.611706 0.010885 0.017207 255 220 0
0.542704 -0.046539 0.037778 255 220 0
0.557830 -0.012123 0.059442 255 220 0
0.576165 0.022175 0.015853 255 220 0
0.645525 0.023702 0.065799 255 220 0
0.645962 0.047793 0.079377 255 220 0
0.595260 -0.034100 0.024348 255 220 0
0.590551 0.080880 0.075659 255 220 0
0.544263 -0.033337 0.033437 255 220 0
0.601191 0.011408 0.012505 255 220 0
0.600079 0.013588 0.011846 255 220 0
0.644974 0.024722 0.049904 255 220 0
0.591847 0.080001 0.041015 255 220 0
0.639752 0.019358 0.040983 255 220 0
0.582078 0.057920 0.028835 255 220 0
0.612990 0.045521 0.014943 255 220 0
0.632812 0.095675 0.073621 255 220 0
0.590533 -0.010155 0.095093 255 220 0
0.608617 0.060494 0.099972 255 220 0
0.588672 0.061706 0.024406 255 220 0
0.642950 0.043244 0.083769 255 220 0
0.623581 0.098878 0.071974 255 220 0
0.633014 0.062711 0.029901 255 220 0
0.555586 -0.004402 0.040915 255 220 0
0.583695 0.054659 0.024202 255 220 0
0.586954 -0.005823 0.094634 255 220 0
0.575450 0.020965 0.016094 255 220 0
0.580007 0.042436 0.086185 255 220 0
0.626614 0.098540 0.059321 255 220 0
0.616057 -0.017903 0.079358 255 220 0
0.559742 -0.002859 0.024401 255 220 0
0.623217 -0.011779 0.076210 255 220 0
0.583527 0.023316 0.012244 255 220 0
0.620373 -0.000968 0.027791 255 220 0
0.564562 -0.063347 0.038965 255 220 0
0.555208 -0.011124 0.051313 255 220 0
0.618678 -0.006368 0.029032 255 220 0
0.576174 0.047856 0.077620 255 220 0
0.563104 0.002140 0.068307 255 220 0
0.577884 0.041206 0.022102 255 220 0
0.591303 0.084690 0.058743 255 220 0
0.572556 -0.011205 0.083442 255 220 0
0.607616 0.067656 0.098261 255 220 0
0.578500 0.032541 0.017278 255 220 0
0.642911 0.036247 0.082258 255 220 0
0.649725 0.053675 0.056614 255 220 0
0.571011 0.025798 0.022635 255 220 0
0.586232 0.043146 0.092714 255 220 0
0.543169 -0.037832 0.021272 255 220 0
0.558897 -0.049501 0.012905 255 220 0
0.617827 0.084691 0.033037 255 220 0
0.594698 0.082581 0.041085 255 220 0
0.573900 -0.003669 0.085377 255 220 0
0.555617 -0.015987 0.020276 255 220 0
0.602292 -0.016325 0.092400 255 220 0
0.602043 0.066947 0.096867 255 220 0
0.609743 -0.030397 0.070506 255 220 0
0.572371 -0.055088 0.061565 255 220 0
0.550315 -0.033180 0.014876 255 220 0
0.583189 -0.031588 0.083187 255 220 0
0.566427 -0.047913 0.064537 255 220 0
0.568552 -0.005814 0.014960 255 220 0
0.559789 0.009368 0.041591 255 220 0
0.591152 0.005573 0.011559 255 220 0
0.607804 0.043380 0.013375 255 220 0
0.595466 0.031102 0.100686 255 220 0
0.611110 0.096371 0.053625 255 220 0
0.641918 0.083452 0.052119 255 220 0
0.581638 0.060388 0.031896 255 220 0
0.581251 0.068787 0.045500 255 220 0
0.585685 -0.047263 0.069044 255 220 0
0.626423 0.016737 0.025698 255 220 0
0.596324 0.077126 0.031908 255 220 0
0.580118 -0.056992 0.036078 255 220 0
0.551966 -0.055852 0.046254 255 220 0
0.576589 0.050341 0.076742 255 220 0
0.587021 0.077451 0.073083 255 220 0
0.590091 -0.017898 0.092226 255 220 0
0.566686 -0.020172 0.012499 255 220 0
0.581756 -0.047949 0.023053 255 220 0
0.645679 0.023444 0.063404 255 220 0
0.623501 -0.013277 0.073559 255 220 0
0.559823 -0.010174 0.063915 255 220 0
0.647288 0.071345 0.055149 255 220 0
0.620134 -0.014955 0.037111 255 220 0
0.572558 0.052081 0.054586 255 220 0
0.589016 -0.044371 0.026476 255 220 0
0.551498 -0.041531 0.012169 255 220 0
0.590259 -0.051901 0.044412 255 220 0
0.635155 0.051500 0.028747 255 220 0
0.634401 0.086945 0.084192 255 220 0
0.567825 0.037807 0.049027 255 220 0
0.602010 0.071813 0.024038 255 220 0
0.586633 0.001453 0.095480 255 220 0
0.638515 0.010310 0.073460 255 220 0
0.623816 0.004770 0.090573 255 220 0
0.619165 -0.017344 0.038119 255 220 0
0.587670 0.072659 0.080996 255 220 0
0.604729 0.022642 0.102326 255 220 0
0.587146 -0.052676 0.037423 255 220 0
0.605075 0.063960 0.098649 255 220 0
0.584120 0.050883 0.088478 255 220 0
0.629916 0.090825 0.045630 255 220 0
0.616017 0.012720 0.098500 255 220 0
0.574706 0.056086 0.046065 255 220 0
0.640296 0.028062 0.083532 255 220 0
0.600109 0.055585 0.098826 255 220 0
0.620939 0.097629 0.075617 255 220 0
0.580574 0.037266 0.088220 255 220 0
0.635574 0.031441 0.030110 255 220 0
0.630559 0.069182 0.094681 255 220 0
0.558392 -0.001128 0.055107 255 220 0
0.560794 -0.029574 0.066964 255 220 0
0.550440 -0.049087 0.013596 255 220 0
0.610482 0.026786 0.013560 255 220 0
0.586228 -0.009209 0.012299 255 220 0
0.590637 -0.037667 0.022732 255 220 0
0.591591 -0.042270 0.072132 255 220 0
0.543260 -0.052869 0.034593 255 220 0
0.602841 -0.000182 0.099059 255 220 0
0.611121 0.000158 0.020261 255 220 0
0.611809 -0.007317 0.092808 255 220 0
0.557645 -0.050643 0.013271 255 220 0
0.561793 -0.014912 0.069412 255 220 0
0.558332 -0.061507 0.045538 255 220 0
0.563850 0.020642 0.059112 255 220 0
0.602811 -0.001566 0.016058 255 220 0
0.592609 0.048778 0.096426 255 220 0
0.630895 0.056314 0.026320 255 220 0
0.648280 0.051215 0.074762 255 220 0
0.619025 0.092759 0.043207 255 220 0
0.584248 -0.022167 0.013569 255 220 0
0.590040 0.079034 0.077667 255 220 0
0.623208 -0.004662 0.084051 255 220 0
0.596417 -0.016810 0.093342 255 220 0
0.560832 0.012021 0.053254 255 220 0
0.596693 -0.034239 0.025724 255 220 0
0.619601 0.094120 0.081816 255 220 0
0.618441 0.002921 0.024423 255 220 0
0.622033 -0.008787 0.034289 255 220 0
0.597231 0.083678 0.039578 255 220 0
0.568812 -0.006271 0.079918 255 220 0
0.570602 -0.014401 0.012602 255 220 0
0.561160 0.014790 0.044974 255 220 0
0.566759 0.033552 0.044815 255 220 0
0.589322 0.078557 0.043185 255 220 0
0.638031 0.011924 0.043200 255 220 0
0.625416 0.083321 0.034563 255 220 0
0.649334 0.042424 0.069143 255 220 0
0.604281 -0.038712 0.062848 255 220 0
0.569604 0.012672 0.018930 255 220 0
0.623700 -0.005149 0.082957 255 220 0
0.564511 -0.007406 0.016882 255 220 0
0.577765 0.022199 0.014775 255 220 0
0.558963 -0.008111 0.060774 255 220 0
0.578192 0.043922 0.083258 255 220 0
0.588839 0.062916 0.088886 255 220 0
0.556902 -0.047342 0.011989 255 220 0
0.644535 0.034387 0.078606 255 220 0
0.639010 0.027329 0.085154 255 220 0
0.633584 0.066709 0.031793 255 220 0
0.630038 0.098319 0.064851 255 220 0
0.557777 -0.021460 0.015433 255 220 0
0.547652 -0.025295 0.034014 255 220 0
0.643126 0.019312 0.049498 255 220 0
0.583561 0.063766 0.032327 255 220 0
0.572346 -0.015605 0.012163 255 220 0
0.585670 -0.005741 0.093964 255 220 0
0.570119 0.032720 0.072087 255 220 0
0.567538 0.026165 0.068594 255 220 0
0.571443 -0.028497 0.011654 255 220 0
0.598841 0.085886 0.041427 255 220 0
0.624032 0.067420 0.025345 255 220 0
0.590679 0.082777 0.071348 255 220 0
0.573029 -0.013366 0.012295 255 220 0
0.569226 0.039913 0.041888 255 220 0
0.621771 -0.013411 0.038146 255 220 0
0.630958 0.083485 0.038420 255 220 0
0.646825 0.040732 0.076012 255 220 0
0.560300 -0.002144 0.061897 255 220 0
0.543046 -0.039367 0.036546 255 220 0
0.560020 0.010778 0.045325 255 220 0
0.607703 0.048503 0.014246 255 220 0
0.611705 -0.004811 0.022520 255 220 0
0.571891 0.025501 0.079624 255 220 0
0.571003 0.042814 0.065113 255 220 0
0.587036 0.053425 0.020375 255 220 0
0.609056 0.019574 0.013894 255 220 0
0.544367 -0.050950 0.039375 255 220 0
0.626200 -0.008856 0.041037 255 220 0
0.618114 0.083075 0.031745 255 220 0
0.585124 0.053532 0.022019 255 220 0
0.650488 0.055229 0.064481 255 220 0
0.571821 0.014888 0.081956 255 220 0
0.576479 0.056932 0.039710 255 220 0
0.549834 -0.026512 0.019593 255 220 0
0.617749 0.057988 0.100131 255 220 0
0.632700 0.079020 0.036805 255 220 0
0.647984 0.048260 0.049889 255 220 0
0.620191 -0.021618 0.066080 255 220 0
0.561152 0.003639 0.061577 255 220 0
0.567913 0.030966 0.065522 255 220 0
0.589444 0.082732 0.063085 255 220 0
0.596409 0.026366 0.010611 255 220 0
0.594710 0.068783 0.025133 255 220 0
0.600223 -0.032365 0.078822 255 220 0
0.602072 -0.042806 0.050083 255 220 0
0.572154 0.042021 0.070356 255 220 0
0.597627 0.021876 0.010680 255 220 0
0.590584 -0.044353 0.028191 255 220 0
0.612040 0.048987 0.101793 255 220 0
0.623670 -0.018889 0.058228 255 220 0
0.544743 -0.031284 0.030123 255 220 0
0.621737 0.028002 0.019396 255 220 0
0.609416 0.092343 0.044148 255 220 0
0.578834 0.065009 0.046914 255 220 0
0.640382 0.021250 0.040943 255 220 0
0.624893 0.097616 0.075400 255 220 0
0.547705 -0.025980 0.025078 255 220 0
0.602663 0.064881 0.019495 255 220 0
0.604322 0.091336 0.077387 255 220 0
0.639145 0.032059 0.086562 255 220 0
0.623502 0.077087 0.095019 255 220 0
0.590863 -0.051292 0.053348 255 220 0
0.638910 0.011686 0.045503 255 220 0
0.618353 0.059653 0.099833 255 220 0
0.629633 -0.009132 0.051383 255 220 0
0.632230 -0.000724 0.073443 255 220 0
0.620873 -0.021058 0.048121 255 220 0
0.556128 -0.008074 0.052207 255 220 0
0.585084 -0.055346 0.048196 255 220 0
0.622106 0.099319 0.059862 255 220 0
0.553372 -0.013460 0.046014 255 220 0
0.581090 -0.050213 0.067120 255 220 0
0.564859 -0.062868 0.033806 255 220 0
0.595191 0.085433 0.046255 255 220 0
0.573549 0.001720 0.014061 255 220 0
0.638371 0.093353 0.062551 255 220 0
0.619078 -0.004332 0.088845 255 220 0
0.595164 0.047658 0.098156 255 220 0
0.569998 0.038888 0.036280 255 220 0
0.626332 -0.002906 0.035486 255 220 0
0.617163 -0.026750 0.050483 255 220 0
0.599616 0.046267 0.013458 255 220 0
0.598824 -0.015266 0.018074 255 220 0
0.589743 0.011055 0.097854 255 220 0
0.574873 0.047983 0.073735 255 220 0
0.616847 0.071539 0.097778 255 220 0
0.613993 0.045916 0.102008 255 220 0
0.559642 0.002864 0.030122 255 220 0
0.565545 -0.039982 0.068170 255 220 0
0.619426 0.076376 0.027590 255 220 0
0.595425 -0.043636 0.033911 255 220 0
0.563937 -0.004783 0.072276 255 220 0
0.588602 0.040417 0.014110 255 220 0
0.624114 0.085222 0.035473 255 220 0
0.569703 0.043236 0.046971 255 220 0
0.605920 0.008121 0.014970 255 220 0
0.593779 0.075006 0.031807 255 220 0
0.593187 0.027421 0.099828 255 220 0
0.601582 -0.022486 0.088310 255 220 0
0.573103 -0.034736 0.012623 255 220 0
0.641810 0.016754 0.072203 255 220 0
0.575257 -0.034236 0.077936 255 220 0
0.637531 0.051081 0.090986 255 220 0
0.633402 0.023075 0.090336 255 220 0
0.632995 0.005934 0.080213 255 220 0
0.563846 0.014412 0.029066 255 220 0
0.578460 0.065723 0.060370 255 220 0
0.598466 -0.045718 0.053931 255 220 0
0.619908 -0.019437 0.071003 255 220 0
0.610364 0.093856 0.078030 255 220 0
0.545238 -0.055936 0.034684 255 220 0
0.593306 -0.047881 0.038234 255 220 0
0.647512 0.033922 0.051045 255 220 0
0.572342 0.024309 0.080673 255 220 0
0.563173 0.008121 0.065771 255 220 0
0.552057 -0.015358 0.041154 255 220 0
0.600855 -0.022790 0.088425 255 220 0
0.591750 -0.050947 0.051622 255 220 0
0.597912 -0.018374 0.092350 255 220 0
0.640588 0.010306 0.065488 255 220 0
0.561126 0.007254 0.059318 255 220 0
0.555737 -0.014045 0.054654 255 220 0
0.606970 0.009432 0.015121 255 220 0
0.550081 -0.059954 0.027887 255 220 0
0.620127 0.069472 0.097951 255 220 0
0.599305 0.078409 0.089182 255 220 0
0.566081 0.000212 0.075562 255 220 0
0.577706 -0.058543 0.037227 255 220 0
0.598780 0.060250 0.097236 255 220 0
0.600939 0.084549 0.084680 255 220 0
0.595831 0.081420 0.037716 255 220 0
0.611406 -0.005043 0.022398 255 220 0
0.633964 0.044922 0.027002 255 220 0
0.550080 -0.038088 0.050111 255 220 0
0.594431 -0.045679 0.063454 255 220 0
0.570080 0.029038 0.074532 255 220 0
0.560705 -0.013045 0.066914 255 220 0
0.574331 -0.029061 0.012117 255 220 0
0.596649 -0.000419 0.098942 255 220 0
0.613090 0.077429 0.095460 255 220 0
0.573525 -0.009024 0.084588 255 220 0
0.615047 0.092594 0.042807 255 220 0
0.631489 0.008822 0.084979 255 220 0
0.637658 0.015271 0.039854 255 220 0
0.554689 -0.020956 0.054912 255 220 0
0.593457 0.041039 0.012959 255 220 0
0.605931 0.094530 0.053851 255 220 0
0.629766 -0.007333 0.047376 255 220 0
0.593952 0.018353 0.100102 255 220 0
0.584762 0.022573 0.011777 255 220 0
0.623356 0.054880 0.021029 255 220 0
0.594806 -0.032104 0.022736 255 220 0
0.589301 -0.052744 0.047109 255 220 0
0.593567 0.085020 0.049017 255 220 0
0.600010 0.086758 0.041612 255 220 0
0.605762 -0.038962 0.047684 255 220 0
0.631066 0.063742 0.028683 255 220 0
0.581684 0.065222 0.076237 255 220 0
0.564187 -0.008657 0.073238 255 220 0
0.567274 -0.005960 0.077931 255 220 0
0.612905 0.048103 0.015291 255 220 0
0.628389 0.098306 0.070300 255 220 0
0.590077 0.050422 0.017113 255 220 0
0.634700 0.018691 0.033474 255 220 0
0.639647 0.084557 0.049254 255 220 0
0.628732 0.048640 0.097302 255 220 0
0.629694 0.028822 0.095204 255 220 0
0.620721 -0.009121 0.032906 255 220 0
0.621341 0.059622 0.021217 255 220 0
0.572258 0.050661 0.048133 255 220 0
0.576168 0.044272 0.079797 255 220 0
0.563829 0.023038 0.041722 255 220 0
0.632326 0.030998 0.026924 255 220 0
0.606223 0.080997 0.091362 255 220 0
0.645812 0.057069 0.044990 255 220 0
0.640615 0.049536 0.087584 255 220 0
0.596934 0.050485 0.098486 255 220 0
0.630265 0.097704 0.060475 255 220 0
0.625144 0.099578 0.064548 255 220 0
0.583051 0.056324 0.085047 255 220 0
0.595695 -0.016010 0.016648 255 220 0
0.608671 0.037391 0.103018 255 220 0
0.591833 0.080449 0.041869 255 220 0
0.635059 0.000063 0.065658 255 220 0
0.616425 0.060353 0.099990 255 220 0
0.593728 0.036548 0.099297 255 220 0
0.598371 0.063259 0.019683 255 220 0
0.583135 0.034151 0.014682 255 220 0
0.636316 0.029591 0.031458 255 220 0
0.594962 -0.018410 0.092568 255 220 0
0.603821 -0.024878 0.026012 255 220 0
0.614875 0.077257 0.095705 255 220 0
0.636137 0.015223 0.037324 255 220 0
0.618679 0.092875 0.083391 255 220 0
0.559965 -0.021812 0.066478 255 220 0
0.598602 0.034754 0.101592 255 220 0
0.602419 0.018799 0.011722 255 220 0
0.639200 0.068345 0.088433 255 220 0
0.567170 -0.005104 0.077762 255 220 0
0.642770 0.068658 0.083929 255 220 0
0.571316 0.026715 0.022680 255 220 0
0.614609 0.024333 0.015792 255 220 0
0.644536 0.034376 0.042727 255 220 0
0.640209 0.069059 0.039741 255 220 0
0.585420 0.077697 0.057890 255 220 0
0.596262 -0.044744 0.062790 255 220 0
0.596389 -0.046068 0.040974 255 220 0
0.644012 0.062984 0.042955 255 220 0
0.600989 -0.043612 0.048319 255 220 0
0.604703 0.094895 0.063914 255 220 0
0.569205 0.034267 0.067214 255 220 0
0.553039 -0.013700 0.028191 255 220 0
0.574501 -0.008098 0.085558 255 220 0
0.585959 0.078259 0.055894 255 220 0
0.609720 0.052891 0.101254 255 220 0
0.602969 -0.029960 0.079462 255 220 0
0.626294 0.001241 0.085502 255 220 0
0.628948 0.073092 0.094529 255 220 0
0.565903 -0.052936 0.060587 255 220 0
0.629750 0.012007 0.089056 255 220 0
0.632975 -0.003686 0.051214 255 220 0
0.594778 0.024555 0.010534 255 220 0
0.548452 -0.023891 0.036081 255 220 0
0.601138 -0.043524 0.054365 255 220 0
0.634829 0.022028 0.032243 255 220 0
0.643871 0.022965 0.072672 255 220 0
0.591027 0.066292 0.089453 255 220 0
0.603630 0.020312 0.011886 255 220 0
0.581794 -0.037562 0.016848 255 220 0
0.610153 0.097298 0.066348 255 220 0
0.598950 -0.009905 0.016491 255 220 0
0.611122 0.048007 0.014800 255 220 0
0.647798 0.033228 0.052963 255 220 0
0.591808 0.044911 0.014435 255 220 0
0.619520 -0.023268 0.063854 255 220 0
