ply
format ascii 1.0
element vertex 1024
property float x
property float y
property float z
property uchar red
property uchar green
property uchar blue
end_header
0.630528 0.010012 0.032446 255 220 0
0.584914 -0.055021 0.046462 255 220 0
0.626812 0.003600 0.031753 255 220 0
0.571810 0.050437 0.055382 255 220 0
0.643608 0.080863 0.077501 255 220 0
0.609125 -0.023138 0.081701 255 220 0
0.570687 0.044255 0.061855 255 220 0
0.601911 0.068515 0.095566 255 220 0
0.617014 0.098147 0.073446 255 220 0
0.623461 -0.011110 0.076485 255 220 0
0.593752 -0.047207 0.039460 255 220 0
0.567183 0.002219 0.076616 255 220 0
0.603131 0.092182 0.047376 255 220 0
0.624726 0.077484 0.029410 255 220 0
0.566502 0.032487 0.057070 255 220 0
0.606432 0.067818 0.019860 255 220 0
0.623277 -0.018454 0.063061 255 220 0
0.577694 -0.028502 0.081915 255 220 0
0.587988 -0.033559 0.019808 255 220 0
0.589453 -0.018958 0.015495 255 220 0
0.568129 0.039211 0.046050 255 220 0
0.632303 0.092356 0.047903 255 220 0
0.630661 0.008060 0.085235 255 220 0
0.636099 0.001678 0.064401 255 220 0
0.632103 -0.003658 0.047947 255 220 0
0.561955 0.018478 0.044437 255 220 0
0.609694 0.024226 0.013570 255 220 0
0.562591 -0.046666 0.062814 255 220 0
0.568466 0.038456 0.058978 255 220 0
0.583028 -0.007204 0.091544 255 220 0
0.583996 -0.029723 0.016276 255 220 0
0.599062 0.023343 0.101249 255 220 0
0.576928 0.061990 0.062062 255 220 0
0.570496 0.041596 0.064334 255 220 0
0.650100 0.046820 0.067652 255 220 0
0.644094 0.061804 0.041521 255 220 0
0.623166 0.098076 0.052925 255 220 0
0.597781 0.006943 0.099840 255 220 0
0.545652 -0.054585 0.039730 255 220 0
0.553835 -0.060556 0.027857 255 220 0
0.631271 0.065279 0.028506 255 220 0
0.631655 -0.000342 0.042032 255 220 0
0.589586 0.044209 0.014440 255 220 0
0.642666 0.054201 0.037404 255 220 0
0.581984 0.073054 0.058155 255 220 0
0.635984 0.012387 0.080834 255 220 0
0.578307 0.030265 0.016081 255 220 0
0.592712 0.082002 0.077812 255 220 0
0.614233 0.025771 0.101406 255 220 0
0.603577 0.066885 0.096790 255 220 0
0.637695 0.052998 0.030682 255 220 0
0.606791 -0.038216 0.054137 255 220 0
0.635035 0.082004 0.086944 255 220 0
0.643640 0.079320 0.049700 255 220 0
0.628635 -0.006854 0.072038 255 220 0
0.608164 0.021656 0.013338 255 220 0
0.566707 0.005456 0.075101 255 220 0
0.540797 -0.039249 0.027056 255 220 0
0.549605 -0.045276 0.014318 255 220 0
0.582691 0.033265 0.014239 255 220 0
0.595793 0.035832 0.099679 255 220 0
0.612093 0.053420 0.100675 255 220 0
0.565001 -0.004226 0.017837 255 220 0
0.615812 -0.028709 0.057242 255 220 0
0.644964 0.077259 0.050958 255 220 0
0.614717 0.078918 0.027064 255 220 0
0.581253 -0.042279 0.075052 255 220 0
0.556176 -0.062687 0.034719 255 220 0
0.551190 -0.024831 0.019384 255 220 0
0.636614 0.079774 0.039904 255 220 0
0.544999 -0.037154 0.018761 255 220 0
0.581122 0.042909 0.018779 255 220 0
0.636975 0.069198 0.034955 255 220 0
0.634685 -0.001126 0.062683 255 220 0
0.573460 -0.057566 0.029695 255 220 0
0.643679 0.052701 0.083381 255 220 0
0.615865 -0.019032 0.078232 255 220 0
0.644186 0.032971 0.078460 255 220 0
0.590468 -0.016778 0.092359 255 220 0
0.586735 0.047079 0.091432 255 220 0
0.564737 0.025034 0.036869 255 220 0
0.613117 0.088986 0.035837 255 220 0
0.618452 0.070304 0.023264 255 220 0
0.627901 0.098266 0.055954 255 220 0
0.582285 0.073310 0.053425 255 220 0
0.620566 0.066516 0.097869 255 220 0
0.586814 -0.044987 0.071585 255 220 0
0.559796 -0.052544 0.016478 255 220 0
0.571742 -0.018228 0.012710 255 220 0
0.581160 0.052290 0.024233 255 220 0
0.578392 0.055131 0.076431 255 220 0
0.610470 -0.032323 0.044438 255 220 0
0.589082 -0.015687 0.014574 255 220 0
0.590619 -0.049805 0.039268 255 220 0
0.577841 0.036695 0.018886 255 220 0
0.608140 0.033009 0.012457 255 220 0
0.588589 -0.032732 0.083149 255 220 0
0.598324 -0.027619 0.023869 255 220 0
0.559967 -0.047026 0.060492 255 220 0
0.604149 0.017055 0.101273 255 220 0
0.643107 0.019540 0.071156 255 220 0
0.573901 0.026901 0.018812 255 220 0
0.646224 0.032528 0.046682 255 220 0
0.620121 0.002850 0.092440 255 220 0
0.636824 0.002098 0.055829 255 220 0
0.579689 0.067882 0.063296 255 220 0
0.589536 -0.048419 0.064030 255 220 0
0.595424 -0.034674 0.025914 255 220 0
0.589499 -0.003121 0.012664 255 220 0
0.555483 -0.028965 0.059333 255 220 0
0.614272 0.074818 0.096141 255 220 0
0.567660 -0.004210 0.016101 255 220 0
0.600559 0.016976 0.101103 255 220 0
0.576670 0.055537 0.035161 255 220 0
0.596941 -0.046773 0.050726 255 220 0
0.566327 0.033616 0.051797 255 220 0
0.572467 0.032276 0.077542 255 220 0
0.589728 -0.004988 0.095484 255 220 0
0.624037 0.077503 0.094221 255 220 0
0.561528 -0.029854 0.012727 255 220 0
0.617185 -0.001493 0.092354 255 220 0
0.604380 0.044929 0.012829 255 220 0
0.646993 0.039510 0.046286 255 220 0
0.642369 0.017946 0.048054 255 220 0
0.639103 0.046351 0.031717 255 220 0
0.585443 -0.005839 0.012474 255 220 0
0.574622 0.044170 0.075428 255 220 0
0.578057 0.046308 0.024034 255 220 0
0.619600 0.055341 0.018724 255 220 0
0.613299 -0.023795 0.075489 255 220 0
0.568564 0.031232 0.067224 255 220 0
0.609668 0.004280 0.018302 255 220 0
0.647487 0.044655 0.047119 255 220 0
0.576932 0.024596 0.085940 255 220 0
0.607331 0.019073 0.013424 255 220 0
0.604217 0.087349 0.036997 255 220 0
0.637159 0.004177 0.066406 255 220 0
0.549588 -0.021154 0.025707 255 220 0
0.627586 0.035936 0.097356 255 220 0
0.649507 0.042789 0.068486 255 220 0
0.601179 -0.022477 0.023284 255 220 0
0.608177 0.071803 0.022129 255 220 0
0.629691 -0.002402 0.040509 255 220 0
0.579953 -0.035311 0.079501 255 220 0
0.633203 0.087727 0.042905 255 220 0
0.638822 0.021640 0.082541 255 220 0
0.544107 -0.053416 0.038004 255 220 0
0.631804 0.091874 0.081195 255 220 0
0.570897 0.016739 0.079710 255 220 0
0.560339 0.001196 0.060506 255 220 0
0.599441 0.031308 0.010897 255 220 0
0.641331 0.011178 0.061672 255 220 0
0.647087 0.079264 0.066471 255 220 0
0.587831 0.081158 0.063305 255 220 0
0.549311 -0.024721 0.043895 255 220 0
0.635803 0.032706 0.029655 255 220 0
0.585297 0.071498 0.077193 255 220 0
0.620566 -0.011840 0.080128 255 220 0
0.606853 0.077589 0.026218 255 220 0
0.556186 -0.043826 0.012760 255 220 0
0.611125 0.036421 0.013400 255 220 0
0.571824 0.045714 0.037059 255 220 0
0.617270 -0.026577 0.060547 255 220 0
0.588533 0.064106 0.087233 255 220 0
0.583581 0.047228 0.018872 255 220 0
0.579386 0.003036 0.089831 255 220 0
0.569587 0.036409 0.066161 255 220 0
0.634492 0.042924 0.026888 255 220 0
0.621816 -0.010441 0.079890 255 220 0
0.647532 0.065942 0.050685 255 220 0
0.581559 -0.055702 0.037468 255 220 0
0.589261 -0.026878 0.087190 255 220 0
0.597326 -0.000408 0.014030 255 220 0
0.579586 -0.057820 0.046733 255 220 0
0.616176 0.098656 0.054663 255 220 0
0.625686 0.005323 0.088975 255 220 0
0.595216 -0.044618 0.036784 255 220 0
0.596196 0.030555 0.100318 255 220 0
0.545320 -0.050607 0.043093 255 220 0
0.640790 0.049333 0.034030 255 220 0
0.551244 -0.016078 0.029111 255 220 0
0.635321 0.000274 0.051807 255 220 0
0.610409 -0.024658 0.078279 255 220 0
0.540332 -0.048194 0.032685 255 220 0
0.634046 0.036464 0.027105 255 220 0
0.627666 0.098552 0.056591 255 220 0
0.626098 0.077964 0.093464 255 220 0
0.562503 -0.033628 0.068112 255 220 0
0.569567 -0.061616 0.042953 255 220 0
0.639094 0.008451 0.067969 255 220 0
0.569884 -0.022568 0.012628 255 220 0
0.625095 0.057738 0.097846 255 220 0
0.650775 0.048548 0.062168 255 220 0
0.550107 -0.043390 0.051798 255 220 0
0.588302 0.041617 0.014117 255 220 0
0.590507 0.048559 0.094236 255 220 0
0.603885 0.067235 0.019728 255 220 0
0.617403 -0.021869 0.071671 255 220 0
0.642590 0.028104 0.040704 255 220 0
0.607847 0.072742 0.022733 255 220 0
0.642222 0.016976 0.070845 255 220 0
0.604533 0.033464 0.011617 255 220 0
0.584263 -0.045714 0.071679 255 220 0
0.554405 -0.010455 0.049122 255 220 0
0.632390 0.036247 0.025662 255 220 0
0.564665 -0.016677 0.073816 255 220 0
0.634523 0.095682 0.072411 255 220 0
0.625612 -0.008388 0.076213 255 220 0
0.609576 0.036977 0.102552 255 220 0
0.572941 -0.036859 0.075096 255 220 0
0.549640 -0.034529 0.015597 255 220 0
0.597127 -0.040727 0.069294 255 220 0
0.623139 0.038379 0.018931 255 220 0
0.562129 -0.055449 0.056408 255 220 0
0.573391 0.027550 0.019611 255 220 0
0.610897 0.053270 0.015350 255 220 0
0.587016 0.080187 0.055369 255 220 0
0.645245 0.062277 0.043880 255 220 0
0.645897 0.030384 0.072705 255 220 0
0.542593 -0.044045 0.020096 255 220 0
0.591224 0.065563 0.023923 255 220 0
0.633767 0.074550 0.091076 255 220 0
0.552103 -0.012918 0.034067 255 220 0
0.644214 0.062182 0.082483 255 220 0
0.626813 0.008749 0.029092 255 220 0
0.545203 -0.033073 0.021345 255 220 0
0.596217 -0.020516 0.019196 255 220 0
0.598870 0.037582 0.011473 255 220 0
0.555712 -0.005818 0.030334 255 220 0
0.586847 -0.022102 0.089068 255 220 0
0.639474 0.008089 0.065161 255 220 0
0.592341 -0.014664 0.093600 255 220 0
0.609584 0.039100 0.102434 255 220 0
0.638935 0.073333 0.087231 255 220 0
0.562543 0.009756 0.062678 255 220 0
0.613983 0.047802 0.101327 255 220 0
0.545773 -0.041035 0.016681 255 220 0
0.635523 0.092224 0.077668 255 220 0
0.556329 -0.046304 0.013251 255 220 0
0.546234 -0.033720 0.042444 255 220 0
0.560991 -0.049443 0.059968 255 220 0
0.578904 0.018603 0.013468 255 220 0
0.562055 0.010667 0.060577 255 220 0
0.563218 -0.021826 0.071422 255 220 0
0.629728 0.011318 0.088457 255 220 0
0.541605 -0.037980 0.025197 255 220 0
0.630961 0.080783 0.035237 255 220 0
0.616253 0.097075 0.049967 255 220 0
0.601791 -0.034267 0.074592 255 220 0
0.543004 -0.033520 0.028780 255 220 0
0.575327 -0.059604 0.046250 255 220 0
0.621450 0.006141 0.025558 255 220 0
0.620800 -0.018700 0.070092 255 220 0
0.596437 0.075214 0.028423 255 220 0
0.600916 0.013764 0.012256 255 220 0
0.557830 -0.053977 0.017180 255 220 0
0.643910 0.023146 0.047358 255 220 0
0.645210 0.078108 0.052269 255 220 0
0.612116 0.098023 0.069083 255 220 0
0.582375 0.064604 0.077761 255 220 0
0.568200 -0.045933 0.015633 255 220 0
0.635315 0.076132 0.036467 255 220 0
0.605691 0.035455 0.011927 255 220 0
0.645885 0.061065 0.044905 255 220 0
0.614728 0.031931 0.014956 255 220 0
0.574901 0.032365 0.020013 255 220 0
0.549900 -0.033409 0.015854 255 220 0
0.611566 0.093456 0.043160 255 220 0
0.625620 0.072385 0.027466 255 220 0
0.540413 -0.049209 0.031406 255 220 0
0.564837 -0.003731 0.073384 255 220 0
0.645695 0.073120 0.049772 255 220 0
0.646292 0.039559 0.076542 255 220 0
0.577041 0.058752 0.068195 255 220 0
0.640191 0.034587 0.034679 255 220 0
0.573070 -0.021872 0.081154 255 220 0
0.640298 0.008897 0.056197 255 220 0
0.578433 0.036905 0.018424 255 220 0
0.645500 0.064020 0.044966 255 220 0
0.574108 0.046159 0.072065 255 220 0
0.638332 0.023287 0.084155 255 220 0
0.549096 -0.057193 0.041881 255 220 0
0.542341 -0.043928 0.020516 255 220 0
0.603709 0.075368 0.025175 255 220 0
0.636404 0.054584 0.091627 255 220 0
0.554449 -0.039954 0.057578 255 220 0
0.647337 0.042628 0.046833 255 220 0
0.628062 0.060469 0.096447 255 220 0
0.576751 0.030731 0.017480 255 220 0
0.571434 -0.014250 0.081588 255 220 0
0.650797 0.052341 0.060812 255 220 0
0.575354 -0.047207 0.069827 255 220 0
0.634592 0.068221 0.091961 255 220 0
0.599426 0.081084 0.032403 255 220 0
0.569438 -0.032948 0.074431 255 220 0
0.542008 -0.041634 0.037957 255 220 0
0.572842 -0.005857 0.083840 255 220 0
0.613302 0.088664 0.086814 255 220 0
0.593745 -0.014241 0.094019 255 220 0
0.591963 0.001327 0.012468 255 220 0
0.546640 -0.027617 0.024548 255 220 0
0.591412 -0.015252 0.015296 255 220 0
0.632392 0.017014 0.031199 255 220 0
0.616167 -0.021285 0.074719 255 220 0
0.641473 0.087036 0.053056 255 220 0
0.641575 0.011928 0.055443 255 220 0
0.634364 0.083100 0.086773 255 220 0
0.606051 0.009371 0.100211 255 220 0
0.600406 -0.043867 0.049955 255 220 0
0.583553 0.025048 0.092351 255 220 0
0.605569 0.070528 0.096244 255 220 0
0.612814 0.049504 0.101193 255 220 0
0.578679 0.038618 0.018963 255 220 0
0.612391 -0.024151 0.076320 255 220 0
0.636565 0.015208 0.082079 255 220 0
0.583417 0.010646 0.092941 255 220 0
0.594471 -0.030296 0.084433 255 220 0
0.602021 -0.005184 0.017177 255 220 0
0.562213 0.013718 0.058953 255 220 0
0.634624 0.066701 0.092163 255 220 0
0.608758 -0.035723 0.059235 255 220 0
0.613298 0.091214 0.083883 255 220 0
0.539704 -0.043711 0.029037 255 220 0
0.575492 0.057951 0.043553 255 220 0
0.589121 0.045401 0.014997 255 220 0
0.592792 0.083285 0.043703 255 220 0
0.579180 -0.009347 0.088601 255 220 0
0.554856 -0.005615 0.036873 255 220 0
0.579375 0.067070 0.047237 255 220 0
0.569967 -0.023451 0.078112 255 220 0
0.605819 0.071075 0.096116 255 220 0
0.552246 -0.024924 0.018260 255 220 0
0.633522 0.012432 0.084613 255 220 0
0.565825 -0.005006 0.075281 255 220 0
0.596148 0.089262 0.054279 255 220 0
0.554407 -0.010501 0.049173 255 220 0
0.564172 -0.010251 0.016447 255 220 0
0.608006 0.061068 0.099180 255 220 0
0.585781 0.018261 0.094544 255 220 0
0.599626 -0.001486 0.098590 255 220 0
0.650688 0.057998 0.062726 255 220 0
0.612904 0.098252 0.069313 255 220 0
0.639698 0.008330 0.053202 255 220 0
0.647899 0.055628 0.048884 255 220 0
0.640792 0.029694 0.083182 255 220 0
0.641071 0.033720 0.084128 255 220 0
0.547879 -0.028829 0.043004 255 220 0
0.645031 0.061988 0.043356 255 220 0
0.643256 0.024022 0.075167 255 220 0
0.540522 -0.046395 0.034609 255 220 0
0.634938 0.083441 0.086155 255 220 0
0.576721 0.042566 0.080808 255 220 0
0.576750 0.035360 0.019375 255 220 0
0.613424 -0.023157 0.076229 255 220 0
0.612846 0.042948 0.014295 255 220 0
0.638031 0.020271 0.083023 255 220 0
0.640542 0.024904 0.038661 255 220 0
0.627520 0.083447 0.090184 255 220 0
0.599948 -0.032294 0.028366 255 220 0
0.545991 -0.041279 0.045456 255 220 0
0.567402 -0.054985 0.060018 255 220 0
0.623811 0.053134 0.098676 255 220 0
0.638904 0.036786 0.087722 255 220 0
0.558726 -0.059440 0.023767 255 220 0
0.627639 0.095187 0.048976 255 220 0
0.582892 -0.027351 0.085084 255 220 0
0.565180 0.008639 0.070759 255 220 0
0.566916 0.019535 0.024892 255 220 0
0.569057 0.022074 0.022797 255 220 0
0.595353 0.088921 0.064223 255 220 0
0.565235 0.029272 0.054062 255 220 0
0.608894 0.096821 0.054794 255 220 0
0.555696 -0.058250 0.021930 255 220 0
0.642745 0.033063 0.039007 255 220 0
0.580631 0.069251 0.065190 255 220 0
0.561734 -0.007710 0.019116 255 220 0
0.585928 -0.032105 0.083296 255 220 0
0.642689 0.054353 0.084881 255 220 0
0.580464 0.069838 0.061995 255 220 0
0.609073 0.095231 0.073947 255 220 0
0.603266 0.092738 0.072849 255 220 0
0.600215 0.020968 0.011152 255 220 0
0.561945 -0.011220 0.068972 255 220 0
0.584807 0.041253 0.015575 255 220 0
0.564709 -0.008428 0.073728 255 220 0
0.583432 0.034265 0.014127 255 220 0
0.583025 0.057650 0.083618 255 220 0
0.647850 0.071565 0.071712 255 220 0
0.580468 -0.018630 0.013030 255 220 0
0.564068 -0.061266 0.029433 255 220 0
0.563719 -0.040342 0.012806 255 220 0
0.605822 0.078992 0.092062 255 220 0
0.573521 -0.059984 0.038707 255 220 0
0.573378 0.011535 0.015563 255 220 0
0.568030 0.036764 0.040042 255 220 0
0.631451 0.044299 0.095287 255 220 0
0.626683 -0.003496 0.080260 255 220 0
0.632826 0.047442 0.025558 255 220 0
0.564886 0.007385 0.070482 255 220 0
0.626459 -0.014247 0.061625 255 220 0
0.593539 0.074082 0.086656 255 220 0
0.606067 0.064426 0.018240 255 220 0
0.618091 0.047470 0.100756 255 220 0
0.591179 0.001524 0.012334 255 220 0
0.561771 0.017137 0.052009 255 220 0
0.629038 0.092029 0.082585 255 220 0
0.571658 0.042021 0.067971 255 220 0
0.572160 0.051652 0.053618 255 220 0
0.623926 -0.018277 0.059253 255 220 0
0.541146 -0.049245 0.034871 255 220 0
0.641394 0.060620 0.036964 255 220 0
0.629130 0.050575 0.023201 255 220 0
0.568951 0.042247 0.049779 255 220 0
0.612777 -0.028259 0.068921 255 220 0
0.634481 0.010371 0.081618 255 220 0
0.611254 -0.009278 0.024464 255 220 0
0.633846 0.091239 0.047816 255 220 0
0.585677 -0.003589 0.012341 255 220 0
0.562410 -0.054571 0.018817 255 220 0
0.561915 -0.010788 0.017701 255 220 0
0.637988 0.011502 0.075998 255 220 0
0.643320 0.062757 0.083787 255 220 0
0.635582 0.002851 0.069598 255 220 0
0.576935 0.059197 0.067238 255 220 0
0.582646 -0.022287 0.014011 255 220 0
0.553050 -0.023115 0.052890 255 220 0
0.603333 0.026344 0.011424 255 220 0
0.639518 0.020368 0.039512 255 220 0
0.613650 0.064637 0.098873 255 220 0
0.573976 -0.000501 0.013909 255 220 0
0.591358 0.029587 0.097890 255 220 0
0.598208 0.038033 0.011545 255 220 0
0.560127 0.007788 0.055482 255 220 0
0.587132 0.080122 0.053569 255 220 0
0.576791 0.057627 0.068707 255 220 0
0.571363 -0.060086 0.034254 255 220 0
0.581343 -0.056280 0.039382 255 220 0
0.644555 0.082183 0.074278 255 220 0
0.626316 0.060867 0.023704 255 220 0
0.547521 -0.056841 0.024265 255 220 0
0.574284 0.043452 0.027889 255 220 0
0.605362 0.021055 0.012420 255 220 0
0.624316 0.019765 0.022960 255 220 0
0.638545 0.017136 0.039864 255 220 0
0.575056 0.014246 0.014936 255 220 0
0.603881 -0.040771 0.050343 255 220 0
0.577973 -0.057092 0.034907 255 220 0
0.609956 -0.034401 0.048809 255 220 0
0.579743 -0.057317 0.052218 255 220 0
0.637232 0.074262 0.037482 255 220 0
0.568584 0.033378 0.065399 255 220 0
0.646089 0.024258 0.060549 255 220 0
0.635397 0.076662 0.036826 255 220 0
0.631088 0.035228 0.094932 255 220 0
0.628574 -0.001611 0.079338 255 220 0
0.559426 -0.054196 0.017638 255 220 0
0.637102 0.094682 0.070230 255 220 0
0.566504 0.032623 0.056816 255 220 0
0.617290 -0.026890 0.053667 255 220 0
0.546355 -0.042353 0.046300 255 220 0
0.605030 -0.003630 0.097487 255 220 0
0.569006 0.013800 0.019573 255 220 0
0.597679 -0.028112 0.085261 255 220 0
0.573637 -0.043215 0.016664 255 220 0
0.620040 0.066509 0.097963 255 220 0
0.612024 0.078535 0.026598 255 220 0
0.551773 -0.016631 0.044704 255 220 0
0.592882 0.040635 0.097399 255 220 0
0.552508 -0.011935 0.038613 255 220 0
0.568559 -0.061063 0.033794 255 220 0
0.587065 -0.033244 0.019127 255 220 0
0.621093 0.078465 0.028349 255 220 0
0.548154 -0.039124 0.048561 255 220 0
0.644429 0.023471 0.048743 255 220 0
0.606743 0.080638 0.028707 255 220 0
0.597263 0.090109 0.054023 255 220 0
0.614811 0.046392 0.015296 255 220 0
0.571016 0.048388 0.049698 255 220 0
0.601536 -0.030881 0.028836 255 220 0
0.573386 0.034495 0.023050 255 220 0
0.569783 0.044725 0.053167 255 220 0
0.564846 -0.029461 0.012478 255 220 0
0.622809 -0.014728 0.072500 255 220 0
0.617693 0.008371 0.096285 255 220 0
0.648914 0.067881 0.056719 255 220 0
0.586611 0.007191 0.095134 255 220 0
0.571136 0.042582 0.035036 255 220 0
0.556116 -0.002069 0.037422 255 220 0
0.553556 -0.060298 0.027265 255 220 0
0.640861 0.009986 0.057505 255 220 0
0.590015 -0.022761 0.089594 255 220 0
0.546794 -0.040548 0.046635 255 220 0
0.567674 0.015654 0.021820 255 220 0
0.589468 0.015825 0.097060 255 220 0
0.557767 -0.050327 0.056874 255 220 0
0.621613 -0.005999 0.084710 255 220 0
0.637879 0.062419 0.090057 255 220 0
0.631297 0.063150 0.094625 255 220 0
0.592077 -0.049933 0.044053 255 220 0
0.570374 0.042455 0.062835 255 220 0
0.599607 0.051297 0.014270 255 220 0
0.578794 0.051460 0.026782 255 220 0
0.619219 0.017439 0.020109 255 220 0
0.639173 0.012231 0.045249 255 220 0
0.603044 0.009245 0.013830 255 220 0
0.547873 -0.022908 0.030812 255 220 0
0.593481 -0.043001 0.031640 255 220 0
0.589289 0.079321 0.042621 255 220 0
0.590071 -0.001750 0.012583 255 220 0
0.607431 0.028732 0.012358 255 220 0
0.592940 0.084418 0.073763 255 220 0
0.582069 -0.018232 0.088362 255 220 0
0.640671 0.009586 0.060437 255 220 0
0.613757 -0.031093 0.055113 255 220 0
0.634798 0.002192 0.046113 255 220 0
0.576768 0.056241 0.035809 255 220 0
0.563217 0.004355 0.022969 255 220 0
0.569740 -0.042212 0.014779 255 220 0
0.596774 0.014645 0.011286 255 220 0
0.621647 -0.002533 0.029906 255 220 0
0.623267 0.055476 0.020551 255 220 0
0.617711 0.048587 0.100714 255 220 0
0.563806 -0.029554 0.070616 255 220 0
0.631875 0.087648 0.041578 255 220 0
0.594506 -0.014213 0.094130 255 220 0
0.633090 0.078402 0.090088 255 220 0
0.600117 0.047724 0.099613 255 220 0
0.613455 0.046855 0.014909 255 220 0
0.597913 0.091156 0.060759 255 220 0
0.616429 -0.027321 0.061619 255 220 0
0.601887 0.082226 0.087370 255 220 0
0.614087 -0.022263 0.036157 255 220 0
0.627983 0.026710 0.095717 255 220 0
0.572031 0.032470 0.023900 255 220 0
0.636405 0.008073 0.075560 255 220 0
0.592753 0.063691 0.091409 255 220 0
0.565556 -0.010892 0.075193 255 220 0
0.622347 0.005707 0.092159 255 220 0
0.604287 -0.016258 0.022564 255 220 0
0.598763 0.037803 0.011504 255 220 0
0.599018 0.046407 0.099439 255 220 0
0.571864 -0.029514 0.012828 255 220 0
0.614836 -0.014153 0.084924 255 220 0
0.637105 0.002764 0.054680 255 220 0
0.585641 0.055641 0.087713 255 220 0
0.628493 -0.004565 0.040635 255 220 0
0.603679 -0.040101 0.045885 255 220 0
0.576583 0.016057 0.086764 255 220 0
0.570700 0.014747 0.018185 255 220 0
0.610954 -0.032325 0.045785 255 220 0
0.581666 -0.033161 0.016377 255 220 0
0.592854 0.017164 0.098906 255 220 0
0.576289 -0.050993 0.066730 255 220 0
0.597888 0.019188 0.010945 255 220 0
0.645532 0.037511 0.077491 255 220 0
0.590328 -0.034499 0.021775 255 220 0
0.568439 0.023939 0.072257 255 220 0
0.559575 -0.055432 0.054558 255 220 0
0.575460 0.057720 0.043162 255 220 0
0.589339 -0.006882 0.013116 255 220 0
0.607090 0.046957 0.101384 255 220 0
0.561882 -0.059526 0.051812 255 220 0
0.577109 0.011989 0.087624 255 220 0
0.630776 0.098695 0.066656 255 220 0
0.595843 0.081881 0.082289 255 220 0
0.586530 -0.029724 0.084943 255 220 0
0.590593 -0.050988 0.054488 255 220 0
0.597707 -0.004231 0.097778 255 220 0
0.581070 0.068863 0.043823 255 220 0
0.628672 0.099549 0.065045 255 220 0
0.634504 0.097016 0.066632 255 220 0
0.573546 0.048093 0.034458 255 220 0
0.600093 0.017659 0.011475 255 220 0
0.611881 -0.008294 0.024493 255 220 0
0.585532 -0.010678 0.092288 255 220 0
0.576389 0.054728 0.070622 255 220 0
0.546814 -0.028522 0.039521 255 220 0
0.549292 -0.037762 0.014826 255 220 0
0.600260 -0.030902 0.027608 255 220 0
0.645376 0.021888 0.059491 255 220 0
0.553386 -0.010143 0.042372 255 220 0
0.600690 -0.041963 0.042612 255 220 0
0.597171 0.078481 0.086825 255 220 0
0.633351 0.065774 0.093126 255 220 0
0.609526 0.073087 0.022954 255 220 0
0.578194 0.019246 0.088014 255 220 0
0.571858 0.008754 0.082358 255 220 0
0.638853 0.092591 0.071965 255 220 0
0.645680 0.040838 0.078254 255 220 0
0.643075 0.021148 0.046811 255 220 0
0.613810 0.065300 0.019656 255 220 0
0.638933 0.037314 0.032398 255 220 0
0.577440 0.015689 0.087646 255 220 0
0.634828 0.011814 0.082251 255 220 0
0.604192 0.068116 0.020174 255 220 0
0.633409 -0.003679 0.059897 255 220 0
0.649269 0.036704 0.062386 255 220 0
0.637545 0.042590 0.090089 255 220 0
0.620058 0.044809 0.100518 255 220 0
0.573952 0.045338 0.072361 255 220 0
0.576849 0.055371 0.071425 255 220 0
0.578464 0.020491 0.088136 255 220 0
0.632438 0.024387 0.028486 255 220 0
0.602803 -0.032905 0.075544 255 220 0
0.620875 0.019863 0.020545 255 220 0
0.583808 -0.034847 0.081027 255 220 0
0.644762 0.053784 0.041194 255 220 0
0.598653 -0.045247 0.048615 255 220 0
0.639560 0.007198 0.058941 255 220 0
0.617076 0.099801 0.058961 255 220 0
0.610348 -0.028862 0.038157 255 220 0
0.626939 0.099750 0.060779 255 220 0
0.555308 -0.033172 0.013414 255 220 0
0.595367 -0.022820 0.019617 255 220 0
0.568585 -0.011213 0.014219 255 220 0
0.553555 -0.009253 0.040640 255 220 0
0.626824 0.061413 0.024190 255 220 0
0.638501 0.024384 0.035750 255 220 0
0.554536 -0.015987 0.053431 255 220 0
0.609417 -0.035469 0.051342 255 220 0
0.596957 0.062026 0.018671 255 220 0
0.567722 0.009941 0.019698 255 220 0
0.619296 0.085748 0.032923 255 220 0
0.573500 -0.055129 0.025751 255 220 0
0.641661 0.061015 0.037455 255 220 0
0.609151 0.064470 0.018439 255 220 0
0.628970 0.023452 0.094176 255 220 0
0.610584 0.011457 0.016668 255 220 0
0.542550 -0.046188 0.039701 255 220 0
0.558270 -0.011665 0.060764 255 220 0
0.574973 0.022605 0.016502 255 220 0
0.645988 0.024514 0.064052 255 220 0
0.646793 0.048637 0.077557 255 220 0
0.594569 -0.033576 0.024460 255 220 0
0.591156 0.081500 0.075658 255 220 0
0.543909 -0.032989 0.035281 255 220 0
0.599913 0.011929 0.012326 255 220 0
0.598771 0.014102 0.011701 255 220 0
0.644892 0.025496 0.048183 255 220 0
0.591275 0.080549 0.040992 255 220 0
0.639391 0.020092 0.039456 255 220 0
0.581184 0.058403 0.029200 255 220 0
0.611654 0.046092 0.014288 255 220 0
0.633265 0.096455 0.072150 255 220 0
0.592161 -0.009490 0.095275 255 220 0
0.610121 0.061240 0.099385 255 220 0
0.587608 0.062204 0.024540 255 220 0
0.643950 0.044086 0.082058 255 220 0
0.623970 0.099618 0.070812 255 220 0
0.632107 0.063393 0.028518 255 220 0
0.555366 -0.003994 0.042307 255 220 0
0.582655 0.055137 0.024521 255 220 0
0.588551 -0.005173 0.094928 255 220 0
0.574272 0.021394 0.016770 255 220 0
0.581130 0.043039 0.086619 255 220 0
0.626572 0.099263 0.058063 255 220 0
0.617164 -0.017175 0.078695 255 220 0
0.558951 -0.002472 0.025658 255 220 0
0.624188 -0.011030 0.075292 255 220 0
0.582204 0.023767 0.012642 255 220 0
0.619654 -0.000339 0.026975 255 220 0
0.564503 -0.062908 0.040177 255 220 0
0.555368 -0.010695 0.052726 255 220 0
0.618023 -0.005743 0.028285 255 220 0
0.576986 0.048425 0.078178 255 220 0
0.563787 0.002639 0.069413 255 220 0
0.576829 0.041658 0.022648 255 220 0
0.591316 0.085275 0.058719 255 220 0
0.573801 -0.010636 0.084245 255 220 0
0.609034 0.068394 0.097694 255 220 0
0.577315 0.032984 0.017825 255 220 0
0.643887 0.037086 0.080563 255 220 0
0.649755 0.054482 0.054665 255 220 0
0.570039 0.026223 0.023448 255 220 0
0.587571 0.043788 0.092931 255 220 0
0.542418 -0.037517 0.023170 255 220 0
0.557899 -0.049144 0.014296 255 220 0
0.616949 0.085321 0.032124 255 220 0
0.594117 0.083139 0.040960 255 220 0
0.575180 -0.003091 0.086117 255 220 0
0.554739 -0.015625 0.021704 255 220 0
0.603845 -0.015621 0.092196 255 220 0
0.603420 0.067660 0.096493 255 220 0
0.610602 -0.029713 0.070090 255 220 0
0.573045 -0.054568 0.062480 255 220 0
0.549324 -0.032851 0.016525 255 220 0
0.584500 -0.030978 0.083671 255 220 0
0.567177 -0.047410 0.065639 255 220 0
0.567445 -0.005414 0.015929 255 220 0
0.559534 0.009794 0.042810 255 220 0
0.589871 0.006052 0.011735 255 220 0
0.606426 0.043927 0.012903 255 220 0
0.597118 0.031798 0.100609 255 220 0
0.610892 0.097021 0.052904 255 220 0
0.641681 0.084218 0.050377 255 220 0
0.580838 0.060875 0.032268 255 220 0
0.580882 0.069304 0.045860 255 220 0
0.586574 -0.046675 0.069485 255 220 0
0.625559 0.017385 0.024640 255 220 0
0.595451 0.077670 0.031744 255 220 0
0.579926 -0.056500 0.036748 255 220 0
0.552133 -0.055446 0.047876 255 220 0
0.577360 0.050910 0.077282 255 220 0
0.587555 0.078052 0.073211 255 220 0
0.591652 -0.017241 0.092441 255 220 0
0.565553 -0.019786 0.013563 255 220 0
0.581084 -0.047480 0.023656 255 220 0
0.646061 0.024251 0.061653 255 220 0
0.624388 -0.012532 0.072636 255 220 0
0.560406 -0.009698 0.065162 255 220 0
0.647199 0.072139 0.053247 255 220 0
0.619788 -0.014306 0.036328 255 220 0
0.572570 0.052585 0.055272 255 220 0
0.588442 -0.043866 0.026822 255 220 0
0.550447 -0.041203 0.013796 255 220 0
0.590325 -0.051351 0.044721 255 220 0
0.634253 0.052188 0.027316 255 220 0
0.635248 0.087755 0.082680 255 220 0
0.567707 0.038279 0.049908 255 220 0
0.600886 0.072362 0.023697 255 220 0
0.588230 0.002104 0.095770 255 220 0
0.639296 0.011112 0.071976 255 220 0
0.625211 0.005554 0.089592 255 220 0
0.618863 -0.016696 0.037373 255 220 0
0.588492 0.073280 0.081108 255 220 0
0.606466 0.023379 0.101951 255 220 0
0.586979 -0.052153 0.037844 255 220 0
0.606522 0.064689 0.098176 255 220 0
0.585285 0.051508 0.088753 255 220 0
0.629436 0.091531 0.044285 255 220 0
0.617655 0.013491 0.097763 255 220 0
0.574411 0.056579 0.046674 255 220 0
0.641349 0.028894 0.081943 255 220 0
0.601599 0.056295 0.098540 255 220 0
0.621459 0.098367 0.074546 255 220 0
0.581786 0.037877 0.088645 255 220 0
0.634796 0.032134 0.028706 255 220 0
0.631836 0.070000 0.093331 255 220 0
0.558640 -0.000677 0.056388 255 220 0
0.561558 -0.029087 0.068216 255 220 0
0.549468 -0.048761 0.015275 255 220 0
0.609174 0.027345 0.013031 255 220 0
0.585033 -0.008747 0.012674 255 220 0
0.589908 -0.037164 0.023011 255 220 0
0.592563 -0.041652 0.072359 255 220 0
0.543023 -0.052523 0.036511 255 220 0
0.604557 0.000540 0.098798 255 220 0
0.610146 0.000735 0.019763 255 220 0
0.613335 -0.006574 0.092260 255 220 0
0.556664 -0.050289 0.014708 255 220 0
0.562581 -0.014416 0.070599 255 220 0
0.558493 -0.061077 0.046955 255 220 0
0.564145 0.021122 0.060159 255 220 0
0.601704 -0.001032 0.015849 255 220 0
0.594048 0.049454 0.096411 255 220 0
0.629893 0.056980 0.025025 255 220 0
0.648938 0.052057 0.072858 255 220 0
0.618461 0.093416 0.042230 255 220 0
0.583149 -0.021710 0.014038 255 220 0
0.590721 0.079657 0.077686 255 220 0
0.624418 -0.003895 0.083114 255 220 0
0.598008 -0.016126 0.093338 255 220 0
0.560964 0.012477 0.054426 255 220 0
0.596048 -0.033707 0.025787 255 220 0
0.620347 0.094867 0.080794 255 220 0
0.617593 0.003535 0.023667 255 220 0
0.621565 -0.008137 0.033430 255 220 0
0.596592 0.084243 0.039365 255 220 0
0.569920 -0.005724 0.080841 255 220 0
0.569447 -0.013999 0.013520 255 220 0
0.560998 0.015229 0.046133 255 220 0
0.566515 0.034012 0.045744 255 220 0
0.588831 0.079100 0.043250 255 220 0
0.637775 0.012656 0.041746 255 220 0
0.624591 0.083984 0.033393 255 220 0
0.649835 0.043258 0.067225 255 220 0
0.604915 -0.038066 0.062641 255 220 0
0.568559 0.013084 0.019821 255 220 0
0.624875 -0.004383 0.082005 255 220 0
0.563479 -0.007018 0.017991 255 220 0
0.576535 0.022634 0.015370 255 220 0
0.559432 -0.007645 0.062047 255 220 0
0.579210 0.044512 0.083752 255 220 0
0.589967 0.063560 0.088975 255 220 0
0.555865 -0.046994 0.013444 255 220 0
0.645393 0.035224 0.076863 255 220 0
0.640122 0.028159 0.083610 255 220 0
0.632725 0.067397 0.030381 255 220 0
0.630184 0.099068 0.063474 255 220 0
0.556754 -0.021101 0.016802 255 220 0
0.547284 -0.024934 0.035725 255 220 0
0.643053 0.020078 0.047851 255 220 0
0.582762 0.064262 0.032627 255 220 0
0.571180 -0.015197 0.013025 255 220 0
0.587245 -0.005098 0.094303 255 220 0
0.570805 0.033253 0.072887 255 220 0
0.568133 0.026681 0.069498 255 220 0
0.570311 -0.028094 0.012574 255 220 0
0.598256 0.086461 0.041153 255 220 0
0.622957 0.068057 0.024262 255 220 0
0.591131 0.083388 0.071342 255 220 0
0.571859 -0.012955 0.013129 255 220 0
0.568856 0.040375 0.042721 255 220 0
0.621453 -0.012753 0.037304 255 220 0
0.630261 0.084178 0.037058 255 220 0
0.647569 0.041572 0.074179 255 220 0
0.560783 -0.001671 0.063111 255 220 0
0.542822 -0.039017 0.038442 255 220 0
0.559887 0.011213 0.046532 255 220 0
0.606334 0.049052 0.013766 255 220 0
0.610826 -0.004227 0.022012 255 220 0
0.572861 0.026058 0.080375 255 220 0
0.571411 0.043335 0.065865 255 220 0
0.585869 0.053907 0.020585 255 220 0
0.607789 0.020128 0.013429 255 220 0
0.544284 -0.050589 0.041250 255 220 0
0.625960 -0.008174 0.040032 255 220 0
0.617198 0.083704 0.030826 255 220 0
0.584013 0.054011 0.022293 255 220 0
0.650779 0.056057 0.062499 255 220 0
0.572913 0.015451 0.082730 255 220 0
0.575963 0.057417 0.040261 255 220 0
0.548977 -0.026174 0.021241 255 220 0
0.619263 0.058769 0.099238 255 220 0
0.631965 0.079716 0.035395 255 220 0
0.647807 0.049046 0.048016 255 220 0
0.620857 -0.020903 0.065292 255 220 0
0.561600 0.004114 0.062751 255 220 0
0.568383 0.031477 0.066405 255 220 0
0.589615 0.083320 0.063125 255 220 0
0.595011 0.026863 0.010565 255 220 0
0.593639 0.069306 0.025046 255 220 0
0.601378 -0.031699 0.078730 255 220 0
0.602288 -0.042197 0.049967 255 220 0
0.572743 0.042559 0.071068 255 220 0
0.596248 0.022378 0.010602 255 220 0
0.590067 -0.043838 0.028482 255 220 0
0.613650 0.049750 0.101112 255 220 0
0.624057 -0.018179 0.057320 255 220 0
0.544267 -0.030943 0.031948 255 220 0
0.620616 0.028617 0.018477 255 220 0
0.608892 0.092966 0.043499 255 220 0
0.578530 0.065520 0.047363 255 220 0
0.640011 0.021986 0.039391 255 220 0
0.625403 0.098369 0.074194 255 220 0
0.547035 -0.025638 0.026794 255 220 0
0.601411 0.065423 0.019149 255 220 0
0.604937 0.092013 0.076894 255 220 0
0.640286 0.032893 0.085003 255 220 0
0.624763 0.077879 0.093892 255 220 0
0.591230 -0.050719 0.053630 255 220 0
0.638733 0.012427 0.044018 255 220 0
0.619850 0.060436 0.098916 255 220 0
0.629744 -0.008414 0.050256 255 220 0
0.633058 0.000054 0.072196 255 220 0
0.620926 -0.020381 0.047320 255 220 0
0.556306 -0.007639 0.053582 255 220 0
0.585295 -0.054807 0.048687 255 220 0
0.622082 0.100026 0.058756 255 220 0
0.553362 -0.013050 0.047498 255 220 0
0.581928 -0.049647 0.067725 255 220 0
0.564622 -0.062440 0.035010 255 220 0
0.594774 0.086006 0.046104 255 220 0
0.572378 0.002137 0.014843 255 220 0
0.638452 0.094129 0.060902 255 220 0
0.620453 -0.003570 0.088045 255 220 0
0.596665 0.048347 0.098056 255 220 0
0.569440 0.039341 0.037092 255 220 0
0.625879 -0.002236 0.034468 255 220 0
0.617321 -0.026082 0.049818 255 220 0
0.598234 0.046783 0.013258 255 220 0
0.597843 -0.014742 0.018029 255 220 0
0.591382 0.011723 0.098016 255 220 0
0.575552 0.048539 0.074340 255 220 0
0.618227 0.072311 0.096888 255 220 0
0.615621 0.046687 0.101268 255 220 0
0.559023 0.003263 0.031367 255 220 0
0.566387 -0.039475 0.069282 255 220 0
0.618394 0.077001 0.026643 255 220 0
0.595097 -0.043090 0.034033 255 220 0
0.564781 -0.004273 0.073366 255 220 0
0.587272 0.040891 0.014298 255 220 0
0.623313 0.085882 0.034343 255 220 0
0.569492 0.043712 0.047777 255 220 0
0.604736 0.008665 0.014635 255 220 0
0.592912 0.075540 0.031734 255 220 0
0.594826 0.028106 0.099837 255 220 0
0.603021 -0.021793 0.088145 255 220 0
0.572028 -0.034324 0.013499 255 220 0
0.642521 0.017566 0.070593 255 220 0
0.576404 -0.033668 0.078700 255 220 0
0.638749 0.051918 0.089438 255 220 0
0.634711 0.023896 0.088989 255 220 0
0.634027 0.006730 0.078922 255 220 0
0.563143 0.014824 0.030144 255 220 0
0.578612 0.066262 0.060823 255 220 0
0.598827 -0.045115 0.053942 255 220 0
0.620734 -0.018712 0.070218 255 220 0
0.610988 0.094558 0.077325 255 220 0
0.545015 -0.055583 0.036541 255 220 0
0.593143 -0.047333 0.038434 255 220 0
0.647431 0.034708 0.049218 255 220 0
0.573352 0.024871 0.081410 255 220 0
0.563745 0.008614 0.066864 255 220 0
0.551890 -0.014963 0.042689 255 220 0
0.602299 -0.022099 0.088286 255 220 0
0.592057 -0.050374 0.051874 255 220 0
0.599474 -0.017687 0.092300 255 220 0
0.641097 0.011099 0.063938 255 220 0
0.561484 0.007724 0.060486 255 220 0
0.556022 -0.013606 0.056054 255 220 0
0.605786 0.009980 0.014748 255 220 0
0.549639 -0.059597 0.029592 255 220 0
0.621520 0.070257 0.096954 255 220 0
0.600376 0.079094 0.088881 255 220 0
0.567017 0.000738 0.076567 255 220 0
0.577560 -0.058058 0.037983 255 220 0
0.600198 0.060951 0.096986 255 220 0
0.601831 0.085230 0.084312 255 220 0
0.595139 0.081976 0.037556 255 220 0
0.610524 -0.004461 0.021900 255 220 0
0.633028 0.045602 0.025627 255 220 0
0.550309 -0.037681 0.051757 255 220 0
0.595118 -0.045070 0.063597 255 220 0
0.570864 0.029577 0.075340 255 220 0
0.561401 -0.012559 0.068135 255 220 0
0.573216 -0.028645 0.012939 255 220 0
0.598366 0.000278 0.098893 255 220 0
0.614371 0.078181 0.094687 255 220 0
0.574800 -0.008448 0.085353 255 220 0
0.614472 0.093235 0.041966 255 220 0
0.632673 0.009623 0.083731 255 220 0
0.637275 0.015994 0.038408 255 220 0
0.555011 -0.020521 0.056361 255 220 0
0.592082 0.041530 0.012980 255 220 0
0.605730 0.095161 0.053310 255 220 0
0.629733 -0.006624 0.046243 255 220 0
0.595636 0.019042 0.100104 255 220 0
0.583425 0.023028 0.012135 255 220 0
0.622184 0.055505 0.019998 255 220 0
0.594053 -0.031586 0.022861 255 220 0
0.589462 -0.052191 0.047451 255 220 0
0.593247 0.085592 0.048921 255 220 0
0.599426 0.087339 0.041297 255 220 0
0.605879 -0.038344 0.047435 255 220 0
0.630115 0.064413 0.027366 255 220 0
0.582377 0.065809 0.076572 255 220 0
0.565080 -0.008144 0.074327 255 220 0
0.568314 -0.005424 0.078906 255 220 0
0.611571 0.048675 0.014634 255 220 0
0.628720 0.099060 0.068976 255 220 0
0.588808 0.050909 0.017227 255 220 0
0.634088 0.019388 0.032125 255 220 0
0.639310 0.085308 0.047588 255 220 0
0.630180 0.049458 0.096056 255 220 0
0.631148 0.029638 0.093968 255 220 0
0.620208 -0.008479 0.032093 255 220 0
0.620158 0.060240 0.020244 255 220 0
0.572056 0.051149 0.048836 255 220 0
0.577068 0.044847 0.080362 255 220 0
0.563523 0.023479 0.042775 255 220 0
0.631444 0.031671 0.025634 255 220 0
0.607354 0.081714 0.090818 255 220 0
0.645434 0.057834 0.043174 255 220 0
0.641721 0.050378 0.085937 255 220 0
0.598434 0.051182 0.098319 255 220 0
0.630263 0.098444 0.059094 255 220 0
0.625277 0.100307 0.063336 255 220 0
0.584078 0.056936 0.085349 255 220 0
0.594670 -0.015501 0.016712 255 220 0
0.610370 0.038144 0.102476 255 220 0
0.591288 0.080998 0.041846 255 220 0
0.635617 0.000834 0.064318 255 220 0
0.617926 0.061129 0.099137 255 220 0
0.595312 0.037235 0.099269 255 220 0
0.597135 0.063784 0.019487 255 220 0
0.581852 0.034606 0.015069 255 220 0
0.635592 0.030290 0.030033 255 220 0
0.596533 -0.017733 0.092618 255 220 0
0.603145 -0.024317 0.025813 255 220 0
0.616163 0.078017 0.094871 255 220 0
0.635669 0.015934 0.035932 255 220 0
0.619484 0.093622 0.082403 255 220 0
0.560681 -0.021329 0.067743 255 220 0
0.600268 0.035465 0.101400 255 220 0
0.601084 0.019322 0.011486 255 220 0
0.640262 0.069183 0.086794 255 220 0
0.568201 -0.004568 0.078740 255 220 0
0.643675 0.069499 0.082170 255 220 0
0.570342 0.027142 0.023481 255 220 0
0.613384 0.024912 0.015126 255 220 0
0.644172 0.035132 0.041005 255 220 0
0.639608 0.069791 0.038095 255 220 0
0.585435 0.078258 0.058082 255 220 0
0.596922 -0.044129 0.062869 255 220 0
0.596311 -0.045502 0.041064 255 220 0
0.643542 0.063739 0.041190 255 220 0
0.601149 -0.043011 0.048242 255 220 0
0.604845 0.095544 0.063408 255 220 0
0.569720 0.034787 0.068045 255 220 0
0.552423 -0.013331 0.029697 255 220 0
0.575805 -0.007517 0.086287 255 220 0
0.585904 0.078817 0.056067 255 220 0
0.611298 0.053643 0.100645 255 220 0
0.604134 -0.029282 0.079271 255 220 0
0.627529 0.002023 0.084446 255 220 0
0.630205 0.073904 0.093225 255 220 0
0.566538 -0.052443 0.061719 255 220 0
0.631061 0.012810 0.087858 255 220 0
0.633057 -0.002955 0.049961 255 220 0
0.593385 0.025045 0.010547 255 220 0
0.548148 -0.023522 0.037760 255 220 0
0.601503 -0.042909 0.054280 255 220 0
0.634162 0.022723 0.030884 255 220 0
0.644572 0.023786 0.070979 255 220 0
0.592160 0.066945 0.089460 255 220 0
0.602295 0.020840 0.011606 255 220 0
0.580869 -0.037107 0.017432 255 220 0
0.610365 0.097974 0.065650 255 220 0
0.597894 -0.009384 0.016432 255 220 0
0.609772 0.048570 0.014204 255 220 0
0.647785 0.034020 0.051126 255 220 0
0.590469 0.045399 0.014504 255 220 0
0.620118 -0.022560 0.063094 255 220 0
