ply
format ascii 1.0
element vertex 1024
property float x
property float y
property float z
property uchar red
property uchar green
property uchar blue
end_header
0.629363 0.011676 0.030146 255 220 0
0.586946 -0.055286 0.045087 255 220 0
0.625795 0.005178 0.029490 255 220 0
0.571487 0.049282 0.059203 255 220 0
0.643887 0.081180 0.076828 255 220 0
0.612932 -0.023972 0.079564 255 220 0
0.571065 0.042829 0.065493 255 220 0
0.604141 0.066814 0.097595 255 220 0
0.616557 0.097729 0.075560 255 220 0
0.626446 -0.011297 0.073726 255 220 0
0.594965 -0.046931 0.037732 255 220 0
0.569988 0.000178 0.078795 255 220 0
0.600827 0.092295 0.050440 255 220 0
0.621349 0.078990 0.030266 255 220 0
0.566862 0.031118 0.060584 255 220 0
0.602647 0.069098 0.021800 255 220 0
0.625412 -0.018136 0.060075 255 220 0
0.581789 -0.030361 0.082025 255 220 0
0.587257 -0.032753 0.019151 255 220 0
0.587943 -0.017961 0.015321 255 220 0
0.567409 0.038299 0.049748 255 220 0
0.629931 0.093399 0.048687 255 220 0
0.633750 0.007756 0.082642 255 220 0
0.637700 0.002338 0.061209 255 220 0
0.632568 -0.002505 0.044918 255 220 0
0.561741 0.017451 0.047798 255 220 0
0.606683 0.025901 0.013541 255 220 0
0.565758 -0.048280 0.063457 255 220 0
0.568795 0.037073 0.062570 255 220 0
0.587241 -0.009276 0.092048 255 220 0
0.582885 -0.028920 0.016098 255 220 0
0.603087 0.021393 0.101678 255 220 0
0.576777 0.060738 0.065917 255 220 0
0.571151 0.040074 0.067870 255 220 0
0.650577 0.047759 0.065151 255 220 0
0.642073 0.063507 0.040189 255 220 0
0.621057 0.098626 0.054633 255 220 0
0.602183 0.005023 0.099721 255 220 0
0.547278 -0.055877 0.041473 255 220 0
0.554663 -0.061129 0.028766 255 220 0
0.628159 0.067047 0.028367 255 220 0
0.631553 0.001013 0.039194 255 220 0
0.586128 0.045172 0.016779 255 220 0
0.640548 0.056021 0.035896 255 220 0
0.581178 0.072098 0.062071 255 220 0
0.638576 0.012416 0.078014 255 220 0
0.575431 0.030817 0.018741 255 220 0
0.593166 0.080650 0.081168 255 220 0
0.618144 0.024306 0.100744 255 220 0
0.605947 0.065195 0.098619 255 220 0
0.635095 0.054910 0.029541 255 220 0
0.608858 -0.038076 0.051689 255 220 0
0.636062 0.081688 0.086951 255 220 0
0.641754 0.080681 0.049070 255 220 0
0.631122 -0.006711 0.069060 255 220 0
0.605217 0.023293 0.013327 255 220 0
0.569298 0.003452 0.077452 255 220 0
0.540980 -0.040244 0.029839 255 220 0
0.548921 -0.045500 0.016221 255 220 0
0.579564 0.034025 0.016683 255 220 0
0.599337 0.033818 0.100868 255 220 0
0.615138 0.051879 0.101285 255 220 0
0.563330 -0.004130 0.020157 255 220 0
0.617814 -0.028403 0.054455 255 220 0
0.643234 0.078618 0.050137 255 220 0
0.611148 0.080184 0.028770 255 220 0
0.585195 -0.043748 0.074361 255 220 0
0.557604 -0.063438 0.035334 255 220 0
0.550300 -0.025218 0.021958 255 220 0
0.633961 0.081272 0.039880 255 220 0
0.544446 -0.037704 0.021331 255 220 0
0.578077 0.043436 0.021712 255 220 0
0.634239 0.070906 0.034501 255 220 0
0.636238 -0.000443 0.059497 255 220 0
0.574276 -0.057573 0.029180 255 220 0
0.645256 0.052836 0.081556 255 220 0
0.619250 -0.019522 0.075745 255 220 0
0.645953 0.033331 0.075827 255 220 0
0.595001 -0.018626 0.091896 255 220 0
0.589324 0.045065 0.093811 255 220 0
0.563717 0.024373 0.040302 255 220 0
0.609954 0.089860 0.038036 255 220 0
0.614821 0.071845 0.024349 255 220 0
0.626010 0.098857 0.057288 255 220 0
0.581094 0.072541 0.057345 255 220 0
0.622972 0.065339 0.098348 255 220 0
0.590541 -0.046143 0.070364 255 220 0
0.559462 -0.052508 0.017284 255 220 0
0.570052 -0.017704 0.013963 255 220 0
0.578272 0.052603 0.027517 255 220 0
0.579580 0.053397 0.079842 255 220 0
0.611580 -0.031708 0.041974 255 220 0
0.587403 -0.014672 0.014564 255 220 0
0.591905 -0.049621 0.037682 255 220 0
0.575001 0.037119 0.021828 255 220 0
0.604787 0.034664 0.012905 255 220 0
0.592868 -0.034277 0.082233 255 220 0
0.597703 -0.026636 0.022624 255 220 0
0.562968 -0.048638 0.061334 255 220 0
0.608343 0.015277 0.101054 255 220 0
0.644693 0.020154 0.068100 255 220 0
0.571358 0.027212 0.021672 255 220 0
0.645469 0.034144 0.043995 255 220 0
0.623975 0.001940 0.090437 255 220 0
0.637728 0.003102 0.052630 255 220 0
0.579452 0.066665 0.067165 255 220 0
0.592754 -0.049199 0.062488 255 220 0
0.595184 -0.033853 0.024606 255 220 0
0.587297 -0.002035 0.013129 255 220 0
0.557876 -0.030702 0.061252 255 220 0
0.616318 0.073491 0.097451 255 220 0
0.565841 -0.003963 0.018221 255 220 0
0.604756 0.015088 0.101162 255 220 0
0.574572 0.055291 0.038883 255 220 0
0.599025 -0.046816 0.048721 255 220 0
0.566235 0.032437 0.055391 255 220 0
0.574440 0.030335 0.080502 255 220 0
0.594165 -0.006991 0.095537 255 220 0
0.625816 0.076562 0.094881 255 220 0
0.560220 -0.029649 0.014317 255 220 0
0.621171 -0.002490 0.090408 255 220 0
0.600719 0.046434 0.014045 255 220 0
0.645999 0.041157 0.043819 255 220 0
0.642168 0.019403 0.045083 255 220 0
0.636777 0.048278 0.030197 255 220 0
0.583320 -0.004875 0.013150 255 220 0
0.576068 0.042364 0.078701 255 220 0
0.575341 0.046535 0.027323 255 220 0
0.616046 0.057108 0.019140 255 220 0
0.616616 -0.024260 0.073024 255 220 0
0.569761 0.029552 0.070487 255 220 0
0.607622 0.005802 0.017461 255 220 0
0.646405 0.046281 0.044815 255 220 0
0.579783 0.022496 0.088211 255 220 0
0.604470 0.020684 0.013375 255 220 0
0.601227 0.087892 0.039823 255 220 0
0.638842 0.004794 0.063223 255 220 0
0.549098 -0.021834 0.028529 255 220 0
0.630828 0.035044 0.096069 255 220 0
0.650172 0.043684 0.065867 255 220 0
0.600350 -0.021385 0.022022 255 220 0
0.604448 0.073050 0.024082 255 220 0
0.629536 -0.001051 0.037748 255 220 0
0.584048 -0.036998 0.079173 255 220 0
0.630566 0.088992 0.043453 255 220 0
0.641267 0.021687 0.079861 255 220 0
0.545567 -0.054695 0.039921 255 220 0
0.632095 0.091655 0.081870 255 220 0
0.573506 0.014685 0.082165 255 220 0
0.561918 -0.000463 0.063243 255 220 0
0.596046 0.032741 0.011964 255 220 0
0.642416 0.012099 0.058460 255 220 0
0.646524 0.080110 0.065503 255 220 0
0.587174 0.080190 0.067065 255 220 0
0.550373 -0.026086 0.046526 255 220 0
0.633727 0.034620 0.027857 255 220 0
0.586038 0.069940 0.080713 255 220 0
0.623873 -0.012257 0.077552 255 220 0
0.603284 0.078633 0.028491 255 220 0
0.555312 -0.043779 0.014211 255 220 0
0.607736 0.038134 0.013746 255 220 0
0.570183 0.045251 0.040761 255 220 0
0.619466 -0.026350 0.057718 255 220 0
0.590280 0.062287 0.090167 255 220 0
0.580408 0.047827 0.021785 255 220 0
0.583173 0.000897 0.091036 255 220 0
0.570543 0.034795 0.069555 255 220 0
0.631899 0.044885 0.025612 255 220 0
0.625058 -0.010810 0.077273 255 220 0
0.646105 0.067410 0.049213 255 220 0
0.582908 -0.055739 0.036363 255 220 0
0.593686 -0.028560 0.086439 255 220 0
0.595123 0.000877 0.013986 255 220 0
0.581742 -0.058265 0.045663 255 220 0
0.614214 0.098914 0.056935 255 220 0
0.629171 0.004721 0.086648 255 220 0
0.596135 -0.044198 0.035054 255 220 0
0.599945 0.028537 0.101263 255 220 0
0.547096 -0.052040 0.045007 255 220 0
0.638553 0.051224 0.032488 255 220 0
0.550869 -0.016838 0.031992 255 220 0
0.635966 0.001383 0.048668 255 220 0
0.613984 -0.025321 0.075994 255 220 0
0.541228 -0.049404 0.035127 255 220 0
0.631663 0.038411 0.025604 255 220 0
0.625819 0.099111 0.057952 255 220 0
0.627796 0.077117 0.093984 255 220 0
0.565706 -0.035459 0.069261 255 220 0
0.571571 -0.062241 0.042530 255 220 0
0.640768 0.009068 0.064799 255 220 0
0.568322 -0.022096 0.013854 255 220 0
0.627742 0.056721 0.097622 255 220 0
0.650763 0.049713 0.059704 255 220 0
0.552346 -0.045002 0.053592 255 220 0
0.584899 0.042553 0.016455 255 220 0
0.593261 0.046561 0.096367 255 220 0
0.600116 0.068437 0.021845 255 220 0
0.620344 -0.022059 0.068976 255 220 0
0.641504 0.029830 0.038149 255 220 0
0.604140 0.073955 0.024748 255 220 0
0.643862 0.017576 0.067758 255 220 0
0.601114 0.035033 0.012368 255 220 0
0.588028 -0.046955 0.070628 255 220 0
0.555443 -0.011867 0.051902 255 220 0
0.629905 0.038194 0.024288 255 220 0
0.567814 -0.018672 0.075449 255 220 0
0.633993 0.095876 0.073059 255 220 0
0.628487 -0.008498 0.073395 255 220 0
0.613265 0.035303 0.102697 255 220 0
0.576757 -0.038607 0.075271 255 220 0
0.548741 -0.034812 0.017920 255 220 0
0.600509 -0.041466 0.067444 255 220 0
0.620089 0.040274 0.018392 255 220 0
0.565047 -0.056828 0.056762 255 220 0
0.570893 0.027813 0.022534 255 220 0
0.607167 0.054882 0.016378 255 220 0
0.585759 0.079491 0.059185 255 220 0
0.643394 0.063929 0.042467 255 220 0
0.647276 0.031017 0.069857 255 220 0
0.542357 -0.044715 0.022574 255 220 0
0.587884 0.066199 0.026948 255 220 0
0.635348 0.074047 0.090869 255 220 0
0.552025 -0.013839 0.036988 255 220 0
0.645439 0.062357 0.080997 255 220 0
0.625431 0.010420 0.027046 255 220 0
0.544733 -0.033718 0.024052 255 220 0
0.595023 -0.019435 0.018417 255 220 0
0.595337 0.038967 0.012832 255 220 0
0.555115 -0.006491 0.033269 255 220 0
0.591289 -0.023939 0.088689 255 220 0
0.640935 0.008824 0.061957 255 220 0
0.596904 -0.016500 0.093070 255 220 0
0.613200 0.037428 0.102663 255 220 0
0.640227 0.073144 0.086585 255 220 0
0.564034 0.008076 0.065575 255 220 0
0.617239 0.046304 0.101562 255 220 0
0.545166 -0.041477 0.019043 255 220 0
0.635510 0.092258 0.078079 255 220 0
0.555567 -0.046267 0.014590 255 220 0
0.547458 -0.035120 0.044963 255 220 0
0.564019 -0.050999 0.060636 255 220 0
0.576162 0.019286 0.015627 255 220 0
0.563354 0.009049 0.063556 255 220 0
0.566334 -0.023772 0.072973 255 220 0
0.632981 0.010860 0.086055 255 220 0
0.541600 -0.038881 0.027975 255 220 0
0.627928 0.082270 0.035714 255 220 0
0.613963 0.097512 0.052188 255 220 0
0.605387 -0.035060 0.072613 255 220 0
0.543147 -0.034514 0.031612 255 220 0
0.577512 -0.060168 0.045444 255 220 0
0.619884 0.007773 0.023841 255 220 0
0.623511 -0.018725 0.067263 255 220 0
0.593151 0.075839 0.031408 255 220 0
0.598142 0.015215 0.012502 255 220 0
0.557601 -0.054029 0.018080 255 220 0
0.643495 0.024673 0.044476 255 220 0
0.643559 0.079426 0.051458 255 220 0
0.611333 0.097609 0.071592 255 220 0
0.583375 0.062938 0.081233 255 220 0
0.567573 -0.045600 0.016049 255 220 0
0.632501 0.077721 0.036413 255 220 0
0.602233 0.037047 0.012665 255 220 0
0.644148 0.062701 0.043390 255 220 0
0.611582 0.033709 0.014835 255 220 0
0.572288 0.032656 0.023008 255 220 0
0.548987 -0.033696 0.018200 255 220 0
0.608859 0.093999 0.045630 255 220 0
0.622236 0.074000 0.028057 255 220 0
0.541237 -0.050366 0.033805 255 220 0
0.567569 -0.005720 0.075521 255 220 0
0.643991 0.074553 0.048733 255 220 0
0.647704 0.040051 0.074015 255 220 0
0.577472 0.057277 0.071889 255 220 0
0.638443 0.036453 0.032594 255 220 0
0.576925 -0.023862 0.081894 255 220 0
0.641019 0.009993 0.052996 255 220 0
0.575547 0.037366 0.021329 255 220 0
0.643683 0.065637 0.043599 255 220 0
0.575229 0.044460 0.075471 255 220 0
0.640859 0.023254 0.081573 255 220 0
0.550957 -0.058450 0.043241 255 220 0
0.542136 -0.044622 0.023018 255 220 0
0.600134 0.076351 0.027609 255 220 0
0.638608 0.054171 0.090415 255 220 0
0.557030 -0.041646 0.059146 255 220 0
0.646293 0.044261 0.044462 255 220 0
0.630506 0.059597 0.096104 255 220 0
0.573978 0.031179 0.020275 255 220 0
0.575105 -0.016319 0.082758 255 220 0
0.650565 0.053553 0.058503 255 220 0
0.579048 -0.048667 0.069421 255 220 0
0.636426 0.067720 0.091434 255 220 0
0.596272 0.081651 0.035372 255 220 0
0.573099 -0.034790 0.075040 255 220 0
0.543124 -0.042994 0.040508 255 220 0
0.576439 -0.007974 0.085226 255 220 0
0.614201 0.087637 0.088789 255 220 0
0.598323 -0.016048 0.093395 255 220 0
0.589604 0.002494 0.012919 255 220 0
0.546259 -0.028341 0.027347 255 220 0
0.589770 -0.014188 0.015118 255 220 0
0.630915 0.018777 0.029037 255 220 0
0.619338 -0.021631 0.072132 255 220 0
0.639634 0.088191 0.052890 255 220 0
0.642142 0.013090 0.052265 255 220 0
0.635348 0.082767 0.086876 255 220 0
0.610381 0.007704 0.099540 255 220 0
0.602331 -0.043772 0.047797 255 220 0
0.586877 0.022923 0.094097 255 220 0
0.607780 0.068919 0.098065 255 220 0
0.616014 0.047971 0.101589 255 220 0
0.575785 0.039064 0.021916 255 220 0
0.615787 -0.024676 0.073908 255 220 0
0.639171 0.015206 0.079321 255 220 0
0.587213 0.008512 0.094121 255 220 0
0.598759 -0.031701 0.083148 255 220 0
0.600193 -0.003857 0.016562 255 220 0
0.563292 0.012162 0.062047 255 220 0
0.636519 0.066195 0.091571 255 220 0
0.611150 -0.035713 0.056712 255 220 0
0.613889 0.090294 0.085970 255 220 0
0.540180 -0.044810 0.031721 255 220 0
0.573994 0.057349 0.047431 255 220 0
0.585673 0.046327 0.017418 255 220 0
0.590496 0.083210 0.047236 255 220 0
0.583236 -0.011432 0.089332 255 220 0
0.554777 -0.006560 0.039859 255 220 0
0.577887 0.066446 0.051161 255 220 0
0.573638 -0.025425 0.079044 255 220 0
0.608003 0.069478 0.097940 255 220 0
0.551266 -0.025234 0.020752 255 220 0
0.636422 0.012239 0.081973 255 220 0
0.568742 -0.007032 0.077283 255 220 0
0.594504 0.088892 0.057747 255 220 0
0.555451 -0.011915 0.051951 255 220 0
0.562572 -0.010123 0.018597 255 220 0
0.610722 0.059439 0.100421 255 220 0
0.589471 0.016135 0.095836 255 220 0
0.604170 -0.003288 0.097995 255 220 0
0.650442 0.059128 0.060644 255 220 0
0.612130 0.097855 0.071769 255 220 0
0.640199 0.009519 0.050037 255 220 0
0.646632 0.057187 0.046979 255 220 0
0.643043 0.029771 0.080667 255 220 0
0.643277 0.033765 0.081748 255 220 0
0.548997 -0.030202 0.045587 255 220 0
0.643148 0.063653 0.041950 255 220 0
0.645028 0.024486 0.072264 255 220 0
0.541517 -0.047673 0.037100 255 220 0
0.635861 0.083150 0.086229 255 220 0
0.578634 0.040630 0.083832 255 220 0
0.573991 0.035731 0.022348 255 220 0
0.616780 -0.023646 0.073776 255 220 0
0.609330 0.044675 0.014762 255 220 0
0.640557 0.020275 0.080349 255 220 0
0.639395 0.026644 0.036146 255 220 0
0.628789 0.082764 0.090824 255 220 0
0.599817 -0.031420 0.026789 255 220 0
0.547679 -0.042791 0.047680 255 220 0
0.570574 -0.056328 0.059963 255 220 0
0.626663 0.052049 0.098365 255 220 0
0.641313 0.036623 0.085620 255 220 0
0.559179 -0.059703 0.024354 255 220 0
0.625285 0.096035 0.050234 255 220 0
0.587186 -0.029161 0.084821 255 220 0
0.567336 0.006744 0.073373 255 220 0
0.565099 0.019400 0.027982 255 220 0
0.566990 0.022084 0.025829 255 220 0
0.594513 0.088155 0.067701 255 220 0
0.565456 0.027978 0.057559 255 220 0
0.607023 0.096839 0.057563 255 220 0
0.555978 -0.058544 0.022809 255 220 0
0.641378 0.034852 0.036643 255 220 0
0.580501 0.067993 0.069032 255 220 0
0.560279 -0.007764 0.021548 255 220 0
0.590209 -0.033743 0.082613 255 220 0
0.644341 0.054398 0.083193 255 220 0
0.580063 0.068693 0.065886 255 220 0
0.608770 0.094540 0.076564 255 220 0
0.602971 0.091901 0.075826 255 220 0
0.597142 0.022429 0.011745 255 220 0
0.564557 -0.013129 0.071054 255 220 0
0.581544 0.042022 0.018166 255 220 0
0.567607 -0.010428 0.075687 255 220 0
0.580264 0.035052 0.016553 255 220 0
0.584694 0.055794 0.086740 255 220 0
0.647928 0.072249 0.070357 255 220 0
0.578785 -0.017833 0.013583 255 220 0
0.565006 -0.061565 0.029507 255 220 0
0.562719 -0.040056 0.013806 255 220 0
0.607450 0.077536 0.094217 255 220 0
0.575125 -0.060323 0.038056 255 220 0
0.571031 0.011968 0.017865 255 220 0
0.566904 0.036077 0.043674 255 220 0
0.634267 0.043600 0.094039 255 220 0
0.629732 -0.003729 0.077538 255 220 0
0.630001 0.049394 0.024597 255 220 0
0.567059 0.005493 0.073070 255 220 0
0.628345 -0.013777 0.058564 255 220 0
0.594927 0.072435 0.089598 255 220 0
0.602255 0.065759 0.020080 255 220 0
0.621297 0.046128 0.100659 255 220 0
0.588806 0.002671 0.012855 255 220 0
0.562199 0.015822 0.055302 255 220 0
0.629445 0.091668 0.083478 255 220 0
0.572585 0.040400 0.071420 255 220 0
0.571660 0.050573 0.057467 255 220 0
0.625751 -0.017795 0.056238 255 220 0
0.542244 -0.050508 0.037198 255 220 0
0.639055 0.062408 0.035813 255 220 0
0.626038 0.052491 0.022663 255 220 0
0.568435 0.041219 0.053519 255 220 0
0.615705 -0.028489 0.066344 255 220 0
0.637201 0.010324 0.078832 255 220 0
0.610093 -0.007918 0.022935 255 220 0
0.631495 0.092337 0.048435 255 220 0
0.583476 -0.002616 0.013089 255 220 0
0.562312 -0.054535 0.019329 255 220 0
0.560438 -0.010779 0.020001 255 220 0
0.640215 0.011779 0.073004 255 220 0
0.644635 0.062853 0.082389 255 220 0
0.637563 0.003299 0.066473 255 220 0
0.577278 0.057755 0.070961 255 220 0
0.581140 -0.021452 0.014244 255 220 0
0.554767 -0.024697 0.055257 255 220 0
0.600112 0.027890 0.011986 255 220 0
0.638576 0.022048 0.036894 255 220 0
0.616216 0.063200 0.099816 255 220 0
0.571850 0.000029 0.015690 255 220 0
0.594960 0.027504 0.099184 255 220 0
0.594670 0.039393 0.012974 255 220 0
0.561113 0.006302 0.058517 255 220 0
0.585734 0.079497 0.057381 255 220 0
0.577297 0.056126 0.072373 255 220 0
0.572623 -0.060329 0.033785 255 220 0
0.582863 -0.056395 0.038263 255 220 0
0.644536 0.082650 0.073595 255 220 0
0.622971 0.062659 0.023795 255 220 0
0.547976 -0.057490 0.025831 255 220 0
0.571973 0.043415 0.031344 255 220 0
0.602370 0.022636 0.012608 255 220 0
0.622131 0.021571 0.021572 255 220 0
0.637731 0.018775 0.037191 255 220 0
0.572574 0.014755 0.017217 255 220 0
0.605733 -0.040581 0.048036 255 220 0
0.579173 -0.057148 0.034038 255 220 0
0.611476 -0.033964 0.046286 255 220 0
0.582319 -0.057962 0.051133 255 220 0
0.634548 0.075878 0.037199 255 220 0
0.569572 0.031764 0.068753 255 220 0
0.646682 0.025360 0.057489 255 220 0
0.632596 0.078239 0.036785 255 220 0
0.634145 0.034542 0.093352 255 220 0
0.631487 -0.001750 0.076546 255 220 0
0.559234 -0.054213 0.018403 255 220 0
0.636419 0.095043 0.070644 255 220 0
0.566840 0.031264 0.060337 255 220 0
0.618948 -0.026405 0.050850 255 220 0
0.548140 -0.043883 0.048450 255 220 0
0.609531 -0.005212 0.096388 255 220 0
0.566927 0.013939 0.022292 255 220 0
0.601956 -0.029446 0.083809 255 220 0
0.572993 -0.042747 0.016757 255 220 0
0.622455 0.065312 0.098484 255 220 0
0.608439 0.079732 0.028502 255 220 0
0.552653 -0.017957 0.047461 255 220 0
0.596113 0.038606 0.099017 255 220 0
0.552762 -0.013015 0.041524 255 220 0
0.569821 -0.061379 0.033508 255 220 0
0.586274 -0.032443 0.018557 255 220 0
0.617616 0.079892 0.029533 255 220 0
0.550017 -0.040684 0.050690 255 220 0
0.644112 0.024962 0.045828 255 220 0
0.603282 0.081582 0.031100 255 220 0
0.595570 0.089785 0.057438 255 220 0
0.611266 0.048142 0.015744 255 220 0
0.570304 0.047423 0.053522 255 220 0
0.601395 -0.029975 0.027189 255 220 0
0.570958 0.034620 0.026237 255 220 0
0.569460 0.043594 0.056928 255 220 0
0.563494 -0.029139 0.013825 255 220 0
0.625586 -0.014783 0.069663 255 220 0
0.621698 0.007232 0.094677 255 220 0
0.647905 0.069165 0.055193 255 220 0
0.590671 0.005084 0.095918 255 220 0
0.569429 0.042176 0.038675 255 220 0
0.555971 -0.002998 0.040448 255 220 0
0.554331 -0.060859 0.028210 255 220 0
0.641652 0.011050 0.054297 255 220 0
0.594507 -0.024513 0.088939 255 220 0
0.548551 -0.042079 0.048821 255 220 0
0.565724 0.015663 0.024708 255 220 0
0.593416 0.013728 0.097957 255 220 0
0.560587 -0.051871 0.057772 255 220 0
0.625108 -0.006561 0.082267 255 220 0
0.639722 0.062103 0.089047 255 220 0
0.633505 0.062448 0.094142 255 220 0
0.593742 -0.049881 0.042329 255 220 0
0.570884 0.040984 0.066421 255 220 0
0.595890 0.052584 0.016108 255 220 0
0.576142 0.051601 0.030208 255 220 0
0.616894 0.019188 0.019039 255 220 0
0.638929 0.013696 0.042311 255 220 0
0.600520 0.010713 0.013723 255 220 0
0.547847 -0.023833 0.033678 255 220 0
0.593949 -0.042447 0.030130 255 220 0
0.587037 0.079177 0.046275 255 220 0
0.587819 -0.000645 0.013059 255 220 0
0.604200 0.030373 0.012690 255 220 0
0.593000 0.083222 0.077213 255 220 0
0.586357 -0.020203 0.088514 255 220 0
0.641707 0.010534 0.057217 255 220 0
0.615668 -0.030772 0.052399 255 220 0
0.634935 0.003494 0.043114 255 220 0
0.574700 0.055972 0.039549 255 220 0
0.561707 0.004190 0.025751 255 220 0
0.568930 -0.041801 0.015225 255 220 0
0.593911 0.015997 0.011896 255 220 0
0.620682 -0.001046 0.027811 255 220 0
0.619841 0.057293 0.020679 255 220 0
0.620882 0.047233 0.100692 255 220 0
0.567084 -0.031441 0.071816 255 220 0
0.629140 0.088919 0.042232 255 220 0
0.599090 -0.015999 0.093446 255 220 0
0.634481 0.077909 0.090091 255 220 0
0.603289 0.045839 0.100938 255 220 0
0.609870 0.048574 0.015483 255 220 0
0.596723 0.090600 0.064139 255 220 0
0.618735 -0.027161 0.058822 255 220 0
0.603061 0.080815 0.089980 255 220 0
0.614228 -0.021233 0.033843 255 220 0
0.631365 0.025904 0.094037 255 220 0
0.569735 0.032522 0.027109 255 220 0
0.638704 0.008319 0.072555 255 220 0
0.594828 0.061854 0.093979 255 220 0
0.568641 -0.012916 0.076982 255 220 0
0.626086 0.004877 0.090097 255 220 0
0.603206 -0.015045 0.021310 255 220 0
0.595227 0.039183 0.012880 255 220 0
0.602219 0.044494 0.100798 255 220 0
0.570516 -0.028977 0.013621 255 220 0
0.618613 -0.014933 0.082687 255 220 0
0.637897 0.003820 0.051490 255 220 0
0.587686 0.053720 0.090534 255 220 0
0.628417 -0.003255 0.037881 255 220 0
0.605158 -0.039752 0.043637 255 220 0
0.579753 0.013926 0.088719 255 220 0
0.568476 0.014991 0.020813 255 220 0
0.612169 -0.031744 0.043278 255 220 0
0.580673 -0.032432 0.016244 255 220 0
0.596898 0.015107 0.099584 255 220 0
0.579845 -0.052302 0.066113 255 220 0
0.594860 0.020583 0.011650 255 220 0
0.647083 0.037945 0.074938 255 220 0
0.589772 -0.033689 0.020890 255 220 0
0.570252 0.022076 0.075220 255 220 0
0.562355 -0.056824 0.055120 255 220 0
0.573937 0.057132 0.047035 255 220 0
0.587284 -0.005814 0.013442 255 220 0
0.610400 0.045234 0.102126 255 220 0
0.564556 -0.060735 0.052040 255 220 0
0.580465 0.009847 0.089373 255 220 0
0.629713 0.098978 0.067740 255 220 0
0.596645 0.080463 0.085378 255 220 0
0.590870 -0.031408 0.084301 255 220 0
0.593124 -0.051373 0.052797 255 220 0
0.602275 -0.006062 0.097227 255 220 0
0.579251 0.068419 0.047698 255 220 0
0.627464 0.099823 0.066334 255 220 0
0.633475 0.097425 0.067357 255 220 0
0.571622 0.047780 0.038130 255 220 0
0.597144 0.019108 0.011944 255 220 0
0.610691 -0.006917 0.022954 255 220 0
0.589897 -0.012692 0.092455 255 220 0
0.577135 0.053147 0.074197 255 220 0
0.547650 -0.029800 0.042212 255 220 0
0.548428 -0.038024 0.017050 255 220 0
0.600026 -0.029991 0.026066 255 220 0
0.645957 0.023010 0.056397 255 220 0
0.553883 -0.011336 0.045271 255 220 0
0.601974 -0.041586 0.040537 255 220 0
0.598429 0.076941 0.089657 255 220 0
0.635355 0.065192 0.092593 255 220 0
0.605820 0.074345 0.024850 255 220 0
0.581363 0.017116 0.089965 255 220 0
0.574910 0.006642 0.084409 255 220 0
0.638364 0.092947 0.072153 255 220 0
0.647192 0.041244 0.075819 255 220 0
0.642678 0.022670 0.043917 255 220 0
0.610056 0.066831 0.020919 255 220 0
0.636928 0.039221 0.030528 255 220 0
0.580688 0.013553 0.089516 255 220 0
0.637554 0.011753 0.079493 255 220 0
0.600431 0.069311 0.022300 255 220 0
0.634820 -0.002931 0.056720 255 220 0
0.649629 0.037826 0.059567 255 220 0
0.639977 0.042286 0.088315 255 220 0
0.623316 0.043543 0.100162 255 220 0
0.575122 0.043624 0.075745 255 220 0
0.577638 0.053773 0.074986 255 220 0
0.581605 0.018364 0.090115 255 220 0
0.630527 0.026245 0.026625 255 220 0
0.606431 -0.033702 0.073537 255 220 0
0.618508 0.021647 0.019439 255 220 0
0.587997 -0.036466 0.080409 255 220 0
0.642949 0.055531 0.039491 255 220 0
0.600518 -0.045157 0.046546 255 220 0
0.640552 0.008169 0.055718 255 220 0
0.615419 0.099925 0.061192 255 220 0
0.610856 -0.028020 0.035865 255 220 0
0.625392 0.100128 0.062228 255 220 0
0.554175 -0.033191 0.015357 255 220 0
0.594278 -0.021779 0.018811 255 220 0
0.566820 -0.010857 0.015994 255 220 0
0.553887 -0.010377 0.043568 255 220 0
0.623499 0.063203 0.024261 255 220 0
0.637146 0.026168 0.033386 255 220 0
0.556080 -0.017549 0.055964 255 220 0
0.611172 -0.035142 0.048808 255 220 0
0.593282 0.063049 0.021127 255 220 0
0.565772 0.010038 0.022362 255 220 0
0.615974 0.086936 0.034520 255 220 0
0.573930 -0.054991 0.025345 255 220 0
0.639349 0.062792 0.036298 255 220 0
0.605342 0.065896 0.020038 255 220 0
0.632322 0.022740 0.092295 255 220 0
0.608193 0.013061 0.016048 255 220 0
0.543937 -0.047590 0.042021 255 220 0
0.560256 -0.013386 0.063148 255 220 0
0.572369 0.023042 0.019116 255 220 0
0.646852 0.025482 0.060997 255 220 0
0.648016 0.049096 0.075348 255 220 0
0.594184 -0.032730 0.023269 255 220 0
0.591459 0.080178 0.079124 255 220 0
0.544550 -0.034198 0.038038 255 220 0
0.597201 0.013347 0.012577 255 220 0
0.595950 0.015504 0.012131 255 220 0
0.644469 0.027021 0.045314 255 220 0
0.588849 0.080529 0.044545 255 220 0
0.638453 0.021771 0.036837 255 220 0
0.578511 0.058523 0.032706 255 220 0
0.608048 0.047777 0.014974 255 220 0
0.632696 0.096617 0.072928 255 220 0
0.596705 -0.011401 0.094959 255 220 0
0.612840 0.059672 0.100466 255 220 0
0.584429 0.062702 0.027713 255 220 0
0.645676 0.044290 0.079873 255 220 0
0.623235 0.099523 0.072449 255 220 0
0.629049 0.065190 0.028238 255 220 0
0.555669 -0.005128 0.045296 255 220 0
0.579701 0.055484 0.027799 255 220 0
0.592953 -0.007194 0.095068 255 220 0
0.571727 0.021799 0.019390 255 220 0
0.583475 0.041028 0.089294 255 220 0
0.624824 0.099731 0.059532 255 220 0
0.620526 -0.017642 0.076179 255 220 0
0.557872 -0.002869 0.028491 255 220 0
0.627073 -0.011149 0.072484 255 220 0
0.579232 0.024582 0.014751 255 220 0
0.618398 0.001189 0.025135 255 220 0
0.566342 -0.063593 0.040110 255 220 0
0.556697 -0.012211 0.055408 255 220 0
0.617037 -0.004310 0.026352 255 220 0
0.578516 0.046588 0.081425 255 220 0
0.566019 0.000756 0.071902 255 220 0
0.574144 0.041902 0.025853 255 220 0
0.590161 0.084588 0.062389 255 220 0
0.577568 -0.012731 0.085364 255 220 0
0.611411 0.066846 0.099152 255 220 0
0.574501 0.033435 0.020664 255 220 0
0.645700 0.037352 0.078110 255 220 0
0.648975 0.055887 0.052547 255 220 0
0.567898 0.026235 0.026566 255 220 0
0.590373 0.041750 0.095107 255 220 0
0.542235 -0.038316 0.025911 255 220 0
0.557297 -0.049092 0.015395 255 220 0
0.613585 0.086464 0.033891 255 220 0
0.591602 0.083210 0.044394 255 220 0
0.578869 -0.005220 0.087421 255 220 0
0.553749 -0.015995 0.024359 255 220 0
0.608283 -0.017029 0.090732 255 220 0
0.605744 0.065975 0.098366 255 220 0
0.613674 -0.030057 0.067621 255 220 0
0.576380 -0.055819 0.061991 255 220 0
0.548450 -0.033182 0.018936 255 220 0
0.588783 -0.032678 0.083143 255 220 0
0.570573 -0.048979 0.065882 255 220 0
0.565649 -0.005166 0.018018 255 220 0
0.559456 0.008759 0.046021 255 220 0
0.587322 0.007173 0.012541 255 220 0
0.602793 0.045497 0.013918 255 220 0
0.600850 0.029798 0.101530 255 220 0
0.608857 0.097174 0.055532 255 220 0
0.639712 0.085484 0.050092 255 220 0
0.578337 0.060866 0.035888 255 220 0
0.579213 0.068777 0.049759 255 220 0
0.590185 -0.047757 0.068224 255 220 0
0.623574 0.019171 0.023053 255 220 0
0.592360 0.078136 0.034891 255 220 0
0.581248 -0.056561 0.035742 255 220 0
0.554408 -0.056831 0.049045 255 220 0
0.578745 0.049116 0.080602 255 220 0
0.587778 0.076709 0.076831 255 220 0
0.596201 -0.019053 0.091867 255 220 0
0.564000 -0.019493 0.015236 255 220 0
0.581094 -0.047025 0.022970 255 220 0
0.646742 0.025312 0.058591 255 220 0
0.627105 -0.012544 0.069762 255 220 0
0.562676 -0.011516 0.067440 255 220 0
0.645795 0.073492 0.052038 255 220 0
0.619687 -0.013106 0.033884 255 220 0
0.572173 0.051456 0.059119 255 220 0
0.588571 -0.043295 0.025691 255 220 0
0.549599 -0.041385 0.015797 255 220 0
0.592091 -0.051379 0.043075 255 220 0
0.631422 0.054115 0.026426 255 220 0
0.635766 0.087598 0.082915 255 220 0
0.567323 0.037211 0.053587 255 220 0
0.597292 0.073312 0.026237 255 220 0
0.592485 0.000031 0.096222 255 220 0
0.641210 0.011582 0.068880 255 220 0
0.628740 0.004913 0.087309 255 220 0
0.618919 -0.015563 0.034903 255 220 0
0.589481 0.071678 0.084434 255 220 0
0.610519 0.021643 0.101799 255 220 0
0.588234 -0.052032 0.036454 255 220 0
0.609056 0.063046 0.099682 255 220 0
0.587535 0.049542 0.091432 255 220 0
0.626811 0.092617 0.045274 255 220 0
0.621627 0.012289 0.096357 255 220 0
0.573205 0.055827 0.050570 255 220 0
0.643524 0.029036 0.079357 255 220 0
0.604427 0.054488 0.100095 255 220 0
0.621067 0.098052 0.076316 255 220 0
0.584443 0.035817 0.091055 255 220 0
0.632666 0.034051 0.026968 255 220 0
0.633737 0.069356 0.093085 255 220 0
0.559953 -0.002236 0.059199 255 220 0
0.564639 -0.030958 0.069620 255 220 0
0.548964 -0.049020 0.017045 255 220 0
0.606030 0.029019 0.013169 255 220 0
0.583013 -0.007801 0.013265 255 220 0
0.589530 -0.036411 0.022047 255 220 0
0.596232 -0.042654 0.070818 255 220 0
0.544341 -0.053783 0.038555 255 220 0
0.609041 -0.001112 0.097897 255 220 0
0.608319 0.002222 0.018738 255 220 0
0.617477 -0.007687 0.090413 255 220 0
0.556134 -0.050292 0.015856 255 220 0
0.565415 -0.016361 0.072498 255 220 0
0.560839 -0.062214 0.047406 255 220 0
0.565095 0.019575 0.063393 255 220 0
0.599649 0.000329 0.015430 255 220 0
0.596937 0.047489 0.098293 255 220 0
0.626754 0.058844 0.024676 255 220 0
0.649679 0.052758 0.070636 255 220 0
0.615656 0.094220 0.044162 255 220 0
0.581627 -0.020860 0.014254 255 220 0
0.591242 0.078247 0.081105 255 220 0
0.627714 -0.004308 0.080542 255 220 0
0.602573 -0.017766 0.092307 255 220 0
0.561724 0.011051 0.057586 255 220 0
0.595767 -0.032861 0.024470 255 220 0
0.620559 0.094286 0.082487 255 220 0
0.615967 0.005115 0.022156 255 220 0
0.621046 -0.006779 0.031105 255 220 0
0.593909 0.084453 0.042655 255 220 0
0.573286 -0.007824 0.082472 255 220 0
0.567706 -0.013585 0.015119 255 220 0
0.561018 0.014111 0.049433 255 220 0
0.565929 0.033065 0.049362 255 220 0
0.586637 0.078918 0.046928 255 220 0
0.637245 0.014205 0.038948 255 220 0
0.621340 0.085329 0.034504 255 220 0
0.650384 0.044209 0.064604 255 220 0
0.607661 -0.038306 0.060313 255 220 0
0.566522 0.013199 0.022545 255 220 0
0.628095 -0.004738 0.079382 255 220 0
0.561908 -0.006975 0.020318 255 220 0
0.573834 0.023164 0.017867 255 220 0
0.561397 -0.009381 0.064496 255 220 0
0.581291 0.042544 0.086648 255 220 0
0.591863 0.061723 0.091767 255 220 0
0.555140 -0.046980 0.014792 255 220 0
0.646962 0.035680 0.074232 255 220 0
0.642455 0.028200 0.081084 255 220 0
0.629695 0.069141 0.030205 255 220 0
0.628859 0.099451 0.064632 255 220 0
0.555529 -0.021215 0.019099 255 220 0
0.547710 -0.026059 0.038537 255 220 0
0.642770 0.021562 0.044912 255 220 0
0.580182 0.064298 0.036229 255 220 0
0.569428 -0.014707 0.014442 255 220 0
0.591600 -0.007138 0.094550 255 220 0
0.572385 0.031432 0.076034 255 220 0
0.569647 0.024908 0.072605 255 220 0
0.568907 -0.027599 0.013547 255 220 0
0.595643 0.086655 0.044394 255 220 0
0.619456 0.069710 0.024900 255 220 0
0.591035 0.082224 0.074902 255 220 0
0.570047 -0.012449 0.014582 255 220 0
0.567834 0.039610 0.046422 255 220 0
0.621378 -0.011537 0.034788 255 220 0
0.627275 0.085571 0.037718 255 220 0
0.648729 0.042191 0.071641 255 220 0
0.562652 -0.003410 0.065688 255 220 0
0.543896 -0.040372 0.041032 255 220 0
0.560061 0.010049 0.049757 255 220 0
0.602619 0.050580 0.014989 255 220 0
0.609322 -0.002796 0.020727 255 220 0
0.575241 0.024032 0.083045 255 220 0
0.572133 0.041783 0.069394 255 220 0
0.582626 0.054508 0.023578 255 220 0
0.604895 0.021752 0.013386 255 220 0
0.545918 -0.051987 0.043253 255 220 0
0.625951 -0.006919 0.037335 255 220 0
0.613778 0.084904 0.032514 255 220 0
0.580910 0.054487 0.025428 255 220 0
0.650571 0.057200 0.060333 255 220 0
0.575793 0.013352 0.084964 255 220 0
0.574217 0.056954 0.044093 255 220 0
0.548283 -0.026701 0.023927 255 220 0
0.622011 0.057508 0.099506 255 220 0
0.628972 0.081232 0.035750 255 220 0
0.646666 0.050643 0.045858 255 220 0
0.623251 -0.020744 0.062390 255 220 0
0.563267 0.002408 0.065496 255 220 0
0.569509 0.029821 0.069696 255 220 0
0.588874 0.082415 0.066833 255 220 0
0.591736 0.028170 0.011802 255 220 0
0.590269 0.069973 0.028027 255 220 0
0.605228 -0.032664 0.076870 255 220 0
0.604158 -0.042043 0.047729 255 220 0
0.573897 0.040857 0.074441 255 220 0
0.593104 0.023729 0.011564 255 220 0
0.590321 -0.043276 0.027219 255 220 0
0.616832 0.048247 0.101453 255 220 0
0.625724 -0.017621 0.054307 255 220 0
0.544582 -0.032017 0.034772 255 220 0
0.617827 0.030459 0.017749 255 220 0
0.606236 0.093410 0.046158 255 220 0
0.577100 0.064865 0.051290 255 220 0
0.639010 0.023685 0.036799 255 220 0
0.624969 0.098196 0.075656 255 220 0
0.546773 -0.026437 0.029632 255 220 0
0.597659 0.066569 0.021389 255 220 0
0.604978 0.091081 0.079696 255 220 0
0.642590 0.032881 0.082647 255 220 0
0.626502 0.076973 0.094511 255 220 0
0.593683 -0.051052 0.051904 255 220 0
0.638387 0.013923 0.041127 255 220 0
0.622520 0.059204 0.099205 255 220 0
0.630542 -0.007418 0.047213 255 220 0
0.635338 0.000326 0.069147 255 220 0
0.621875 -0.019548 0.044502 255 220 0
0.557609 -0.009160 0.056309 255 220 0
0.587497 -0.055143 0.047282 255 220 0
0.620383 0.100320 0.060604 255 220 0
0.554352 -0.014432 0.050263 255 220 0
0.585503 -0.050811 0.066716 255 220 0
0.566036 -0.062928 0.034972 255 220 0
0.592581 0.085902 0.049581 255 220 0
0.570255 0.002577 0.016851 255 220 0
0.637039 0.094883 0.061225 255 220 0
0.624145 -0.004297 0.085777 255 220 0
0.599707 0.046407 0.099682 255 220 0
0.567999 0.038807 0.040727 255 220 0
0.625252 -0.000783 0.032035 255 220 0
0.618650 -0.025452 0.047046 255 220 0
0.594574 0.048069 0.015027 255 220 0
0.596379 -0.013571 0.017358 255 220 0
0.595520 0.009658 0.098596 255 220 0
0.576779 0.046799 0.077719 255 220 0
0.620392 0.071088 0.097786 255 220 0
0.618900 0.045246 0.101331 255 220 0
0.558228 0.002648 0.034402 255 220 0
0.569842 -0.041216 0.069889 255 220 0
0.614835 0.078405 0.027987 255 220 0
0.595752 -0.042572 0.032384 255 220 0
0.567528 -0.006262 0.075487 255 220 0
0.583908 0.041789 0.016686 255 220 0
0.620086 0.087148 0.035625 255 220 0
0.568772 0.042774 0.051541 255 220 0
0.602287 0.010158 0.014370 255 220 0
0.589892 0.075926 0.034995 255 220 0
0.598614 0.026065 0.100793 255 220 0
0.607322 -0.023069 0.086516 255 220 0
0.570876 -0.033801 0.014086 255 220 0
0.644123 0.018185 0.067508 255 220 0
0.580400 -0.035443 0.078718 255 220 0
0.640849 0.051667 0.087945 255 220 0
0.637616 0.023564 0.086696 255 220 0
0.636641 0.006774 0.076037 255 220 0
0.561895 0.014375 0.033321 255 220 0
0.578230 0.065105 0.064721 255 220 0
0.601112 -0.045218 0.051843 255 220 0
0.623455 -0.018744 0.067393 255 220 0
0.610967 0.093804 0.079753 255 220 0
0.546419 -0.056775 0.038307 255 220 0
0.594281 -0.047039 0.036752 255 220 0
0.646810 0.036266 0.046514 255 220 0
0.575848 0.022823 0.083991 255 220 0
0.565598 0.006818 0.069604 255 220 0
0.552559 -0.016211 0.045512 255 220 0
0.606623 -0.023403 0.086700 255 220 0
0.594357 -0.050615 0.050104 255 220 0
0.603997 -0.019238 0.091096 255 220 0
0.642365 0.011928 0.060732 255 220 0
0.562864 0.006095 0.063393 255 220 0
0.557699 -0.015222 0.058555 255 220 0
0.603303 0.011502 0.014453 255 220 0
0.550592 -0.060373 0.030862 255 220 0
0.623738 0.069141 0.097512 255 220 0
0.601768 0.077581 0.091478 255 220 0
0.569862 -0.001305 0.078700 255 220 0
0.579035 -0.058241 0.037095 255 220 0
0.602771 0.059151 0.098842 255 220 0
0.602674 0.083927 0.087058 255 220 0
0.592384 0.082208 0.040877 255 220 0
0.609019 -0.003035 0.020630 255 220 0
0.630262 0.047559 0.024576 255 220 0
0.552375 -0.039292 0.053762 255 220 0
0.598182 -0.045656 0.061753 255 220 0
0.572747 0.027670 0.078326 255 220 0
0.563989 -0.014453 0.070211 255 220 0
0.571847 -0.028069 0.013661 255 220 0
0.602887 -0.001578 0.098466 255 220 0
0.616201 0.076907 0.096129 255 220 0
0.578587 -0.010555 0.086477 255 220 0
0.611666 0.093918 0.044204 255 220 0
0.635589 0.009439 0.081049 255 220 0
0.636383 0.017648 0.035795 255 220 0
0.556920 -0.022172 0.058665 255 220 0
0.588577 0.042632 0.015023 255 220 0
0.603801 0.095133 0.056266 255 220 0
0.630159 -0.005480 0.043288 255 220 0
0.599709 0.017028 0.100635 255 220 0
0.580431 0.023903 0.014120 255 220 0
0.618717 0.057308 0.020213 255 220 0
0.593484 -0.030699 0.021796 255 220 0
0.591474 -0.052349 0.045829 255 220 0
0.591296 0.085334 0.052490 255 220 0
0.596795 0.087565 0.044481 255 220 0
0.607422 -0.037983 0.045079 255 220 0
0.626942 0.066188 0.027286 255 220 0
0.583247 0.064187 0.080096 255 220 0
0.568016 -0.010155 0.076266 255 220 0
0.571523 -0.007504 0.080683 255 220 0
0.607917 0.050341 0.015428 255 220 0
0.627839 0.099190 0.070226 255 220 0
0.585376 0.051734 0.019884 255 220 0
0.632608 0.021169 0.029921 255 220 0
0.637095 0.086600 0.047544 255 220 0
0.632910 0.048683 0.095110 255 220 0
0.634293 0.028997 0.092164 255 220 0
0.619597 -0.007114 0.029865 255 220 0
0.616578 0.061962 0.020806 255 220 0
0.571191 0.050246 0.052691 255 220 0
0.578877 0.042935 0.083452 255 220 0
0.563023 0.022559 0.046219 255 220 0
0.629094 0.033594 0.024152 255 220 0
0.608797 0.080352 0.092966 255 220 0
0.643657 0.059524 0.041572 255 220 0
0.643578 0.050356 0.084162 255 220 0
0.601407 0.049287 0.099919 255 220 0
0.628608 0.098995 0.060237 255 220 0
0.623922 0.100534 0.064927 255 220 0
0.585902 0.055051 0.088353 255 220 0
0.593135 -0.014384 0.016263 255 220 0
0.614016 0.036498 0.102606 255 220 0
0.588917 0.080946 0.045412 255 220 0
0.637238 0.001484 0.061130 255 220 0
0.620601 0.059825 0.099604 255 220 0
0.598784 0.035219 0.100553 255 220 0
0.593473 0.064780 0.021995 255 220 0
0.578755 0.035305 0.017629 255 220 0
0.633618 0.032185 0.028154 255 220 0
0.601094 -0.019392 0.091641 255 220 0
0.602564 -0.023254 0.024314 255 220 0
0.618007 0.076795 0.096166 255 220 0
0.634587 0.017629 0.033452 255 220 0
0.619864 0.092955 0.084108 255 220 0
0.563499 -0.023221 0.069527 255 220 0
0.603944 0.033533 0.102217 255 220 0
0.598084 0.020801 0.011944 255 220 0
0.641637 0.069058 0.085880 255 220 0
0.571371 -0.006647 0.080560 255 220 0
0.644661 0.069659 0.081020 255 220 0
0.568176 0.027161 0.026611 255 220 0
0.610463 0.026649 0.014830 255 220 0
0.642897 0.036890 0.038605 255 220 0
0.637095 0.071467 0.037445 255 220 0
0.584457 0.077411 0.061935 255 220 0
0.599894 -0.044630 0.060924 255 220 0
0.597592 -0.045206 0.039197 255 220 0
0.641440 0.065434 0.039979 255 220 0
0.602910 -0.042829 0.046068 255 220 0
0.603710 0.095109 0.066410 255 220 0
0.570873 0.033109 0.071357 255 220 0
0.552010 -0.014078 0.032593 255 220 0
0.579635 -0.009627 0.087365 255 220 0
0.584748 0.078061 0.059914 255 220 0
0.614337 0.052077 0.101326 255 220 0
0.607947 -0.030180 0.077290 255 220 0
0.630745 0.001654 0.081862 255 220 0
0.631988 0.073206 0.093262 255 220 0
0.569774 -0.053881 0.061827 255 220 0
0.634217 0.012416 0.085413 255 220 0
0.633658 -0.001847 0.046878 255 220 0
0.590168 0.026302 0.011840 255 220 0
0.548691 -0.024697 0.040554 255 220 0
0.603740 -0.042941 0.052058 255 220 0
0.632484 0.024549 0.028812 255 220 0
0.646013 0.024449 0.067979 255 220 0
0.593986 0.065158 0.092213 255 220 0
0.599254 0.022353 0.012029 255 220 0
0.580079 -0.036439 0.017200 255 220 0
0.609317 0.097631 0.068307 255 220 0
0.596145 -0.008159 0.015976 255 220 0
0.606093 0.050195 0.015137 255 220 0
0.647334 0.035518 0.048359 255 220 0
0.586977 0.046388 0.016821 255 220 0
0.622388 -0.022341 0.060192 255 220 0
