ply
format ascii 1.0
element vertex 1024
property float x
property float y
property float z
property uchar red
property uchar green
property uchar blue
end_header
0.629523 0.010853 0.030135 255 220 0
0.585795 -0.055447 0.044224 255 220 0
0.625873 0.004407 0.029409 255 220 0
0.571597 0.049360 0.057882 255 220 0
0.644066 0.080199 0.077044 255 220 0
0.611489 -0.024476 0.079224 255 220 0
0.570942 0.042923 0.064169 255 220 0
0.603667 0.066458 0.096957 255 220 0
0.617020 0.097152 0.075163 255 220 0
0.625315 -0.012012 0.073666 255 220 0
0.594095 -0.047224 0.037035 255 220 0
0.568938 0.000312 0.077491 255 220 0
0.601761 0.091917 0.049712 255 220 0
0.622516 0.078279 0.030005 255 220 0
0.566672 0.031269 0.059183 255 220 0
0.603858 0.068654 0.021145 255 220 0
0.624476 -0.018854 0.060004 255 220 0
0.580208 -0.030395 0.081012 255 220 0
0.587006 -0.032959 0.018275 255 220 0
0.587997 -0.018185 0.014445 255 220 0
0.567562 0.038425 0.048353 255 220 0
0.630909 0.092584 0.048593 255 220 0
0.632708 0.006943 0.082719 255 220 0
0.637041 0.001436 0.061382 255 220 0
0.632194 -0.003354 0.044990 255 220 0
0.561626 0.017662 0.046303 255 220 0
0.607426 0.025390 0.013024 255 220 0
0.564318 -0.048100 0.062120 255 220 0
0.568650 0.037197 0.061203 255 220 0
0.585755 -0.009379 0.091128 255 220 0
0.582760 -0.029065 0.015123 255 220 0
0.601845 0.021063 0.101067 255 220 0
0.576911 0.060745 0.064697 255 220 0
0.570935 0.040170 0.066550 255 220 0
0.650508 0.046665 0.065553 255 220 0
0.642786 0.062502 0.040394 255 220 0
0.621988 0.097952 0.054338 255 220 0
0.600739 0.004706 0.099109 255 220 0
0.546210 -0.055451 0.039747 255 220 0
0.553791 -0.060832 0.027210 255 220 0
0.629186 0.066232 0.028268 255 220 0
0.631356 0.000171 0.039240 255 220 0
0.587095 0.044970 0.015792 255 220 0
0.641242 0.055034 0.036077 255 220 0
0.581564 0.072033 0.060935 255 220 0
0.637702 0.011524 0.078191 255 220 0
0.576145 0.030780 0.017537 255 220 0
0.593260 0.080432 0.080279 255 220 0
0.616961 0.023750 0.100457 255 220 0
0.605426 0.064814 0.098022 255 220 0
0.635913 0.053994 0.029607 255 220 0
0.607813 -0.038557 0.051282 255 220 0
0.636031 0.080838 0.086994 255 220 0
0.642531 0.079692 0.049247 255 220 0
0.630159 -0.007503 0.069099 255 220 0
0.605925 0.022804 0.012781 255 220 0
0.568327 0.003594 0.076131 255 220 0
0.540401 -0.039743 0.027961 255 220 0
0.548557 -0.045137 0.014525 255 220 0
0.580369 0.033922 0.015565 255 220 0
0.598299 0.033543 0.100161 255 220 0
0.614356 0.051366 0.100902 255 220 0
0.563494 -0.003981 0.018727 255 220 0
0.616850 -0.029015 0.054231 255 220 0
0.643956 0.077608 0.050349 255 220 0
0.612369 0.079623 0.028286 255 220 0
0.583580 -0.043843 0.073440 255 220 0
0.556553 -0.063175 0.033843 255 220 0
0.550114 -0.024869 0.020268 255 220 0
0.634949 0.080385 0.039889 255 220 0
0.544089 -0.037267 0.019528 255 220 0
0.578914 0.043362 0.020551 255 220 0
0.635189 0.070009 0.034528 255 220 0
0.635575 -0.001326 0.059642 255 220 0
0.573441 -0.057568 0.028047 255 220 0
0.644908 0.051844 0.081833 255 220 0
0.617955 -0.020125 0.075538 255 220 0
0.645437 0.032323 0.076143 255 220 0
0.593376 -0.018844 0.091156 255 220 0
0.588611 0.044927 0.092876 255 220 0
0.563869 0.024542 0.038845 255 220 0
0.611119 0.089328 0.037513 255 220 0
0.616013 0.071223 0.023955 255 220 0
0.626885 0.098113 0.057100 255 220 0
0.581589 0.072470 0.056208 255 220 0
0.622452 0.064703 0.098122 255 220 0
0.588975 -0.046322 0.069563 255 220 0
0.558966 -0.052300 0.015825 255 220 0
0.570146 -0.017662 0.012697 255 220 0
0.579120 0.052533 0.026347 255 220 0
0.579300 0.053383 0.078688 255 220 0
0.610840 -0.032244 0.041621 255 220 0
0.587523 -0.014889 0.013672 255 220 0
0.590997 -0.049868 0.036922 255 220 0
0.575741 0.037091 0.020606 255 220 0
0.605675 0.034180 0.012337 255 220 0
0.591220 -0.034476 0.081466 255 220 0
0.597465 -0.026994 0.021968 255 220 0
0.561571 -0.048419 0.059937 255 220 0
0.607021 0.014869 0.100564 255 220 0
0.644149 0.019155 0.068405 255 220 0
0.571955 0.027240 0.020382 255 220 0
0.645659 0.033097 0.044307 255 220 0
0.622679 0.001285 0.090305 255 220 0
0.637268 0.002187 0.052806 255 220 0
0.579647 0.066634 0.065996 255 220 0
0.591313 -0.049423 0.061740 255 220 0
0.594796 -0.034170 0.023903 255 220 0
0.587637 -0.002254 0.012221 255 220 0
0.556750 -0.030409 0.059723 255 220 0
0.615942 0.072952 0.097071 255 220 0
0.566049 -0.003854 0.016846 255 220 0
0.603430 0.014733 0.100594 255 220 0
0.575213 0.055293 0.037628 255 220 0
0.597917 -0.047153 0.048110 255 220 0
0.566178 0.032590 0.053976 255 220 0
0.573802 0.030402 0.079262 255 220 0
0.592635 -0.007193 0.094764 255 220 0
0.625539 0.075877 0.094705 255 220 0
0.560130 -0.029459 0.012850 255 220 0
0.619810 -0.003103 0.090220 255 220 0
0.601760 0.046010 0.013375 255 220 0
0.646297 0.040101 0.044135 255 220 0
0.642115 0.018409 0.045338 255 220 0
0.637481 0.047339 0.030306 255 220 0
0.583619 -0.005034 0.012158 255 220 0
0.575649 0.042403 0.077483 255 220 0
0.576103 0.046509 0.026097 255 220 0
0.617130 0.056462 0.018791 255 220 0
0.615310 -0.024828 0.072765 255 220 0
0.569331 0.029674 0.069148 255 220 0
0.607978 0.005285 0.016986 255 220 0
0.646758 0.045220 0.045133 255 220 0
0.578859 0.022495 0.087094 255 220 0
0.605138 0.020206 0.012816 255 220 0
0.602326 0.087493 0.039112 255 220 0
0.638176 0.003877 0.063418 255 220 0
0.548820 -0.021458 0.026807 255 220 0
0.629902 0.034291 0.096048 255 220 0
0.650026 0.042597 0.066265 255 220 0
0.600202 -0.021784 0.021418 255 220 0
0.605667 0.072583 0.023461 255 220 0
0.629340 -0.001865 0.037754 255 220 0
0.582429 -0.037069 0.078217 255 220 0
0.631593 0.088161 0.043379 255 220 0
0.640491 0.020756 0.080087 255 220 0
0.544551 -0.054247 0.038157 255 220 0
0.632324 0.090856 0.081817 255 220 0
0.572599 0.014770 0.080921 255 220 0
0.561199 -0.000231 0.061768 255 220 0
0.596929 0.032386 0.011207 255 220 0
0.641962 0.011121 0.058726 255 220 0
0.646932 0.079073 0.065781 255 220 0
0.587570 0.080041 0.066050 255 220 0
0.549640 -0.025703 0.044832 255 220 0
0.634279 0.033725 0.027916 255 220 0
0.585984 0.069829 0.079681 255 220 0
0.622645 -0.012928 0.077437 255 220 0
0.604490 0.078189 0.027837 255 220 0
0.555016 -0.043514 0.012653 255 220 0
0.608657 0.037607 0.013238 255 220 0
0.570635 0.045322 0.039421 255 220 0
0.618461 -0.026982 0.057527 255 220 0
0.589904 0.062128 0.089233 255 220 0
0.581308 0.047717 0.020669 255 220 0
0.581863 0.000852 0.090017 255 220 0
0.570212 0.034904 0.068228 255 220 0
0.632654 0.044013 0.025620 255 220 0
0.623857 -0.011499 0.077183 255 220 0
0.646678 0.066357 0.049500 255 220 0
0.581941 -0.055852 0.035414 255 220 0
0.592032 -0.028765 0.085682 255 220 0
0.595485 0.000542 0.013245 255 220 0
0.580535 -0.058347 0.044689 255 220 0
0.615101 0.098345 0.056490 255 220 0
0.627998 0.003982 0.086627 255 220 0
0.595365 -0.044512 0.034381 255 220 0
0.598820 0.028254 0.100575 255 220 0
0.546009 -0.051607 0.043272 255 220 0
0.639251 0.050262 0.032633 255 220 0
0.550590 -0.016484 0.030302 255 220 0
0.635566 0.000488 0.048808 255 220 0
0.612598 -0.025845 0.075679 255 220 0
0.540397 -0.048898 0.033263 255 220 0
0.632321 0.037543 0.025615 255 220 0
0.626683 0.098371 0.057759 255 220 0
0.627546 0.076402 0.093850 255 220 0
0.564332 -0.035271 0.067907 255 220 0
0.570376 -0.062176 0.041340 255 220 0
0.640131 0.008124 0.065031 255 220 0
0.568353 -0.022028 0.012555 255 220 0
0.627108 0.056013 0.097509 255 220 0
0.650841 0.048608 0.060109 255 220 0
0.551175 -0.044636 0.051961 255 220 0
0.585834 0.042370 0.015444 255 220 0
0.592514 0.046368 0.095515 255 220 0
0.601316 0.068032 0.021135 255 220 0
0.619158 -0.022689 0.068797 255 220 0
0.641758 0.028835 0.038380 255 220 0
0.605358 0.073492 0.024119 255 220 0
0.643287 0.016590 0.068047 255 220 0
0.602020 0.034602 0.011720 255 220 0
0.586444 -0.047097 0.069773 255 220 0
0.554804 -0.011554 0.050302 255 220 0
0.630589 0.037351 0.024261 255 220 0
0.566556 -0.018508 0.074121 255 220 0
0.634477 0.095035 0.073044 255 220 0
0.627404 -0.009244 0.073378 255 220 0
0.612205 0.034822 0.102291 255 220 0
0.575202 -0.038575 0.074160 255 220 0
0.548500 -0.034445 0.016208 255 220 0
0.599073 -0.041799 0.066855 255 220 0
0.620936 0.039569 0.018150 255 220 0
0.563626 -0.056645 0.055420 255 220 0
0.571481 0.027849 0.021233 255 220 0
0.608281 0.054365 0.015838 255 220 0
0.586317 0.079352 0.058141 255 220 0
0.644063 0.062907 0.042701 255 220 0
0.646855 0.029981 0.070206 255 220 0
0.541869 -0.044245 0.020733 255 220 0
0.588944 0.065983 0.025973 255 220 0
0.635117 0.073215 0.090904 255 220 0
0.551682 -0.013496 0.035319 255 220 0
0.645245 0.061360 0.081268 255 220 0
0.625642 0.009651 0.026951 255 220 0
0.544377 -0.033282 0.022249 255 220 0
0.594985 -0.019760 0.017695 255 220 0
0.596295 0.038623 0.012054 255 220 0
0.554962 -0.006200 0.031660 255 220 0
0.589656 -0.024106 0.087875 255 220 0
0.640356 0.007873 0.062194 255 220 0
0.595285 -0.016745 0.092369 255 220 0
0.612173 0.036947 0.102254 255 220 0
0.640074 0.072232 0.086728 255 220 0
0.563392 0.008279 0.064136 255 220 0
0.616367 0.045760 0.101232 255 220 0
0.544802 -0.041054 0.017260 255 220 0
0.635830 0.091403 0.078101 255 220 0
0.555225 -0.046005 0.013040 255 220 0
0.546624 -0.034694 0.043216 255 220 0
0.562601 -0.050796 0.059265 255 220 0
0.576771 0.019235 0.014452 255 220 0
0.562771 0.009259 0.062102 255 220 0
0.565053 -0.023589 0.071619 255 220 0
0.631911 0.010063 0.086110 255 220 0
0.541082 -0.038392 0.026109 255 220 0
0.629023 0.081468 0.035592 255 220 0
0.614933 0.096940 0.051741 255 220 0
0.603932 -0.035459 0.072122 255 220 0
0.542615 -0.034044 0.029774 255 220 0
0.576283 -0.060187 0.044380 255 220 0
0.620127 0.007082 0.023630 255 220 0
0.622410 -0.019405 0.067150 255 220 0
0.594256 0.075550 0.030536 255 220 0
0.598750 0.014831 0.011811 255 220 0
0.557066 -0.053792 0.016582 255 220 0
0.643532 0.023657 0.044755 255 220 0
0.644264 0.078413 0.051675 255 220 0
0.611883 0.097104 0.071082 255 220 0
0.583206 0.062869 0.080150 255 220 0
0.567205 -0.045515 0.014759 255 220 0
0.633512 0.076852 0.036395 255 220 0
0.603163 0.036600 0.012039 255 220 0
0.644778 0.061670 0.043641 255 220 0
0.612411 0.033126 0.014416 255 220 0
0.572938 0.032671 0.021732 255 220 0
0.548756 -0.033332 0.016492 255 220 0
0.609921 0.093495 0.045077 255 220 0
0.623376 0.073272 0.027821 255 220 0
0.540421 -0.049862 0.031943 255 220 0
0.566503 -0.005554 0.074173 255 220 0
0.644682 0.073531 0.048966 255 220 0
0.647327 0.039014 0.074361 255 220 0
0.577424 0.057283 0.070686 255 220 0
0.638918 0.035494 0.032752 255 220 0
0.575446 -0.023824 0.080768 255 220 0
0.640653 0.009028 0.053235 255 220 0
0.576302 0.037329 0.020119 255 220 0
0.644353 0.064613 0.043836 255 220 0
0.574912 0.044506 0.074233 255 220 0
0.640069 0.022332 0.081787 255 220 0
0.549811 -0.058077 0.041598 255 220 0
0.541640 -0.044148 0.021171 255 220 0
0.601327 0.075952 0.026889 255 220 0
0.638089 0.053291 0.090543 255 220 0
0.555787 -0.041342 0.057612 255 220 0
0.646623 0.043202 0.044780 255 220 0
0.629947 0.058846 0.096049 255 220 0
0.574664 0.031165 0.019038 255 220 0
0.573720 -0.016253 0.081584 255 220 0
0.650727 0.052448 0.058900 255 220 0
0.577469 -0.048676 0.068372 255 220 0
0.636088 0.066872 0.091499 255 220 0
0.597377 0.081320 0.034560 255 220 0
0.571607 -0.034704 0.073845 255 220 0
0.542271 -0.042509 0.038677 255 220 0
0.575125 -0.007926 0.084071 255 220 0
0.614226 0.087116 0.088348 255 220 0
0.596703 -0.016314 0.092723 255 220 0
0.590016 0.002240 0.012056 255 220 0
0.545911 -0.027924 0.025571 255 220 0
0.589884 -0.014440 0.014277 255 220 0
0.631205 0.017928 0.029052 255 220 0
0.618089 -0.022241 0.071930 255 220 0
0.640440 0.087238 0.053012 255 220 0
0.641837 0.012107 0.052526 255 220 0
0.635335 0.081928 0.086903 255 220 0
0.608978 0.007264 0.099103 255 220 0
0.601287 -0.044161 0.047256 255 220 0
0.585828 0.022825 0.093133 255 220 0
0.607326 0.068509 0.097504 255 220 0
0.615167 0.047446 0.101230 255 220 0
0.576552 0.039025 0.020709 255 220 0
0.614456 -0.025230 0.073632 255 220 0
0.638310 0.014307 0.079508 255 220 0
0.585948 0.008411 0.093180 255 220 0
0.597127 -0.031986 0.082506 255 220 0
0.600426 -0.004263 0.015936 255 220 0
0.562788 0.012371 0.060589 255 220 0
0.636155 0.065347 0.091641 255 220 0
0.610030 -0.036221 0.056351 255 220 0
0.614015 0.089772 0.085521 255 220 0
0.539492 -0.044294 0.029830 255 220 0
0.574480 0.057372 0.046159 255 220 0
0.586644 0.046133 0.016419 255 220 0
0.591367 0.082983 0.046294 255 220 0
0.581779 -0.011479 0.088328 255 220 0
0.554479 -0.006255 0.038241 255 220 0
0.578427 0.066415 0.049962 255 220 0
0.572198 -0.025342 0.077849 255 220 0
0.607560 0.069064 0.097382 255 220 0
0.551106 -0.024902 0.019083 255 220 0
0.635461 0.011385 0.082103 255 220 0
0.567617 -0.006881 0.075961 255 220 0
0.595231 0.088620 0.056883 255 220 0
0.554809 -0.011601 0.050352 255 220 0
0.562681 -0.009964 0.017158 255 220 0
0.610073 0.058990 0.099933 255 220 0
0.588282 0.016001 0.094936 255 220 0
0.602639 -0.003637 0.097436 255 220 0
0.650640 0.058028 0.061032 255 220 0
0.612679 0.097338 0.071276 255 220 0
0.639890 0.008563 0.050260 255 220 0
0.647101 0.056125 0.047289 255 220 0
0.642370 0.028814 0.080922 255 220 0
0.642640 0.032806 0.082003 255 220 0
0.548223 -0.029799 0.043868 255 220 0
0.643824 0.062634 0.042178 255 220 0
0.644457 0.023488 0.072570 255 220 0
0.540669 -0.047168 0.035240 255 220 0
0.635867 0.082302 0.086266 255 220 0
0.578077 0.040637 0.082671 255 220 0
0.574700 0.035720 0.021105 255 220 0
0.615467 -0.024215 0.073520 255 220 0
0.610326 0.044125 0.014282 255 220 0
0.639749 0.019355 0.080560 255 220 0
0.639645 0.025677 0.036335 255 220 0
0.628692 0.082028 0.090706 255 220 0
0.599416 -0.031803 0.026184 255 220 0
0.546671 -0.042364 0.045946 255 220 0
0.569089 -0.056223 0.058741 255 220 0
0.625944 0.051360 0.098234 255 220 0
0.640635 0.035698 0.085828 255 220 0
0.558422 -0.059480 0.022896 255 220 0
0.626271 0.095291 0.050035 255 220 0
0.585561 -0.029272 0.083923 255 220 0
0.566504 0.006910 0.072006 255 220 0
0.565444 0.019531 0.026563 255 220 0
0.567421 0.022184 0.024448 255 220 0
0.595012 0.087897 0.066836 255 220 0
0.565286 0.028146 0.056131 255 220 0
0.607868 0.096378 0.056963 255 220 0
0.555273 -0.058275 0.021280 255 220 0
0.641739 0.033855 0.036867 255 220 0
0.580674 0.067948 0.067885 255 220 0
0.560360 -0.007567 0.020056 255 220 0
0.588562 -0.033901 0.081787 255 220 0
0.643980 0.053422 0.083448 255 220 0
0.580315 0.068651 0.064729 255 220 0
0.609167 0.094081 0.076001 255 220 0
0.603346 0.091528 0.075139 255 220 0
0.597875 0.022059 0.011024 255 220 0
0.563479 -0.012924 0.069650 255 220 0
0.582435 0.041891 0.017082 255 220 0
0.566467 -0.010262 0.074344 255 220 0
0.581087 0.034939 0.015450 255 220 0
0.584298 0.055714 0.085693 255 220 0
0.648113 0.071199 0.070674 255 220 0
0.578882 -0.017923 0.012508 255 220 0
0.564107 -0.061421 0.028176 255 220 0
0.562484 -0.039903 0.012405 255 220 0
0.607209 0.077125 0.093639 255 220 0
0.574055 -0.060318 0.036943 255 220 0
0.571484 0.011997 0.016585 255 220 0
0.567157 0.036202 0.042272 255 220 0
0.633512 0.042792 0.094084 255 220 0
0.628630 -0.004488 0.077541 255 220 0
0.630846 0.048548 0.024559 255 220 0
0.566214 0.005662 0.071699 255 220 0
0.627506 -0.014541 0.058552 255 220 0
0.594714 0.072205 0.088754 255 220 0
0.603453 0.065319 0.019420 255 220 0
0.620440 0.045523 0.100417 255 220 0
0.589222 0.002429 0.011975 255 220 0
0.561897 0.016037 0.053817 255 220 0
0.629641 0.090911 0.083367 255 220 0
0.572297 0.040480 0.070130 255 220 0
0.571828 0.050646 0.056149 255 220 0
0.624904 -0.018524 0.056175 255 220 0
0.541351 -0.050014 0.035357 255 220 0
0.639848 0.061442 0.035955 255 220 0
0.626973 0.051701 0.022536 255 220 0
0.568549 0.041335 0.052142 255 220 0
0.614481 -0.029053 0.066071 255 220 0
0.636279 0.009454 0.078982 255 220 0
0.610124 -0.008463 0.022528 255 220 0
0.632463 0.091499 0.048376 255 220 0
0.583810 -0.002778 0.012099 255 220 0
0.561741 -0.054366 0.017934 255 220 0
0.560507 -0.010587 0.018516 255 220 0
0.639440 0.010855 0.073219 255 220 0
0.644418 0.061871 0.082641 255 220 0
0.636805 0.002406 0.066642 255 220 0
0.577258 0.057762 0.069754 255 220 0
0.581168 -0.021575 0.013224 255 220 0
0.553863 -0.024367 0.053656 255 220 0
0.600920 0.027474 0.011324 255 220 0
0.638741 0.021095 0.037070 255 220 0
0.615635 0.062667 0.099444 255 220 0
0.572171 0.000044 0.014442 255 220 0
0.593866 0.027291 0.098390 255 220 0
0.595631 0.039059 0.012180 255 220 0
0.560599 0.006538 0.057019 255 220 0
0.586331 0.079356 0.056337 255 220 0
0.577222 0.056136 0.071168 255 220 0
0.571647 -0.060293 0.032618 255 220 0
0.581844 -0.056505 0.037314 255 220 0
0.644806 0.081655 0.073825 255 220 0
0.624034 0.061915 0.023589 255 220 0
0.547224 -0.057098 0.024126 255 220 0
0.572602 0.043446 0.030047 255 220 0
0.603085 0.022188 0.012001 255 220 0
0.622628 0.020841 0.021394 255 220 0
0.637841 0.017836 0.037353 255 220 0
0.573081 0.014759 0.015968 255 220 0
0.604731 -0.041021 0.047564 255 220 0
0.578236 -0.057209 0.033010 255 220 0
0.610609 -0.034492 0.045933 255 220 0
0.580998 -0.058046 0.050171 255 220 0
0.635513 0.074980 0.037228 255 220 0
0.569213 0.031886 0.067408 255 220 0
0.646446 0.024316 0.057834 255 220 0
0.633606 0.077369 0.036768 255 220 0
0.633270 0.033736 0.093404 255 220 0
0.630436 -0.002537 0.076586 255 220 0
0.558689 -0.054000 0.016941 255 220 0
0.636942 0.094163 0.070684 255 220 0
0.566658 0.031414 0.058935 255 220 0
0.618092 -0.027039 0.050650 255 220 0
0.547099 -0.043462 0.046728 255 220 0
0.608003 -0.005642 0.095949 255 220 0
0.567314 0.014035 0.020920 255 220 0
0.600343 -0.029779 0.083234 255 220 0
0.572650 -0.042742 0.015582 255 220 0
0.621932 0.064684 0.098246 255 220 0
0.609660 0.079211 0.027959 255 220 0
0.552019 -0.017607 0.045808 255 220 0
0.595189 0.038375 0.098235 255 220 0
0.552332 -0.012676 0.039869 255 220 0
0.568837 -0.061301 0.032281 255 220 0
0.586041 -0.032635 0.017660 255 220 0
0.618814 0.079235 0.029190 255 220 0
0.548974 -0.040288 0.049004 255 220 0
0.644124 0.023939 0.046120 255 220 0
0.604477 0.081141 0.030442 255 220 0
0.596316 0.089496 0.056597 255 220 0
0.612291 0.047563 0.015301 255 220 0
0.570511 0.047510 0.052178 255 220 0
0.601006 -0.030381 0.026617 255 220 0
0.571566 0.034660 0.024929 255 220 0
0.569535 0.043700 0.055569 255 220 0
0.563422 -0.028999 0.012428 255 220 0
0.624492 -0.015490 0.069590 255 220 0
0.620390 0.006616 0.094489 255 220 0
0.648373 0.068094 0.055515 255 220 0
0.589315 0.004934 0.095056 255 220 0
0.569881 0.042255 0.037322 255 220 0
0.555713 -0.002710 0.038852 255 220 0
0.553475 -0.060557 0.026646 255 220 0
0.641273 0.010077 0.054549 255 220 0
0.592858 -0.024728 0.088195 255 220 0
0.547529 -0.041663 0.047105 255 220 0
0.566084 0.015781 0.023308 255 220 0
0.592144 0.013539 0.097144 255 220 0
0.559219 -0.051621 0.056327 255 220 0
0.623862 -0.007244 0.082172 255 220 0
0.639350 0.061204 0.089192 255 220 0
0.633030 0.061649 0.094150 255 220 0
0.592729 -0.050148 0.041608 255 220 0
0.570713 0.041082 0.065095 255 220 0
0.596980 0.052235 0.015325 255 220 0
0.576916 0.051567 0.028993 255 220 0
0.617413 0.018534 0.018750 255 220 0
0.638851 0.012746 0.042503 255 220 0
0.601034 0.010296 0.013089 255 220 0
0.547428 -0.023431 0.031930 255 220 0
0.593312 -0.042736 0.029408 255 220 0
0.587870 0.079001 0.045262 255 220 0
0.588182 -0.000872 0.012160 255 220 0
0.605028 0.029898 0.012114 255 220 0
0.593219 0.083000 0.076318 255 220 0
0.584786 -0.020297 0.087588 255 220 0
0.641257 0.009565 0.057470 255 220 0
0.614713 -0.031354 0.052132 255 220 0
0.634689 0.002606 0.043231 255 220 0
0.575337 0.055973 0.038295 255 220 0
0.561875 0.004370 0.024275 255 220 0
0.568637 -0.041738 0.013961 255 220 0
0.594545 0.015675 0.011112 255 220 0
0.620706 -0.001743 0.027626 255 220 0
0.620893 0.056592 0.020411 255 220 0
0.620042 0.046634 0.100439 255 220 0
0.565714 -0.031270 0.070487 255 220 0
0.630193 0.088107 0.042127 255 220 0
0.597469 -0.016276 0.092792 255 220 0
0.634325 0.077088 0.090103 255 220 0
0.602429 0.045503 0.100304 255 220 0
0.610908 0.048016 0.015009 255 220 0
0.597335 0.090303 0.063320 255 220 0
0.617694 -0.027780 0.058616 255 220 0
0.602963 0.080462 0.089304 255 220 0
0.613821 -0.021822 0.033539 255 220 0
0.630347 0.025141 0.094039 255 220 0
0.570294 0.032582 0.025777 255 220 0
0.637887 0.007417 0.072741 255 220 0
0.594361 0.061632 0.093144 255 220 0
0.567435 -0.012763 0.075665 255 220 0
0.624841 0.004189 0.090008 255 220 0
0.603168 -0.015488 0.020761 255 220 0
0.596187 0.038841 0.012099 255 220 0
0.601342 0.044174 0.100142 255 220 0
0.570448 -0.028942 0.012378 255 220 0
0.617235 -0.015518 0.082459 255 220 0
0.637473 0.002900 0.051668 255 220 0
0.587175 0.053601 0.089553 255 220 0
0.628186 -0.004052 0.037865 255 220 0
0.604264 -0.040189 0.043153 255 220 0
0.578689 0.013927 0.087611 255 220 0
0.568910 0.015063 0.019475 255 220 0
0.611400 -0.032288 0.042938 255 220 0
0.580493 -0.032544 0.015225 255 220 0
0.595609 0.014867 0.098846 255 220 0
0.578283 -0.052328 0.065086 255 220 0
0.595568 0.020246 0.010882 255 220 0
0.646655 0.036918 0.075273 255 220 0
0.589469 -0.033930 0.020069 255 220 0
0.569608 0.022198 0.073899 255 220 0
0.560970 -0.056604 0.053720 255 220 0
0.574429 0.057155 0.045762 255 220 0
0.587561 -0.006032 0.012538 255 220 0
0.609502 0.044794 0.101647 255 220 0
0.563179 -0.060552 0.050693 255 220 0
0.579325 0.009839 0.088285 255 220 0
0.630361 0.098194 0.067630 255 220 0
0.596644 0.080200 0.084564 255 220 0
0.589221 -0.031574 0.083487 255 220 0
0.591861 -0.051616 0.052062 255 220 0
0.600720 -0.006383 0.096630 255 220 0
0.579896 0.068362 0.046528 255 220 0
0.628155 0.099070 0.066175 255 220 0
0.634107 0.096583 0.067331 255 220 0
0.572169 0.047825 0.036819 255 220 0
0.597823 0.018738 0.011227 255 220 0
0.610736 -0.007470 0.022559 255 220 0
0.588351 -0.012834 0.091597 255 220 0
0.576975 0.053162 0.072991 255 220 0
0.546956 -0.029382 0.040465 255 220 0
0.548158 -0.037653 0.015335 255 220 0
0.599662 -0.030378 0.025463 255 220 0
0.645710 0.021975 0.056729 255 220 0
0.553396 -0.011009 0.043637 255 220 0
0.601121 -0.041980 0.039987 255 220 0
0.598281 0.076657 0.088884 255 220 0
0.634955 0.064362 0.092638 255 220 0
0.607041 0.073858 0.024257 255 220 0
0.580319 0.017095 0.088888 255 220 0
0.573833 0.006710 0.083204 255 220 0
0.638822 0.092040 0.072237 255 220 0
0.646795 0.040217 0.076153 255 220 0
0.642699 0.021666 0.044180 255 220 0
0.611249 0.066275 0.020427 255 220 0
0.637490 0.038282 0.030651 255 220 0
0.579601 0.013542 0.088428 255 220 0
0.636639 0.010878 0.079649 255 220 0
0.601635 0.068902 0.021596 255 220 0
0.634182 -0.003796 0.056838 255 220 0
0.649533 0.036739 0.059961 255 220 0
0.639325 0.041384 0.088487 255 220 0
0.622431 0.042907 0.099967 255 220 0
0.574787 0.043672 0.074506 255 220 0
0.577470 0.053782 0.073790 255 220 0
0.580576 0.018339 0.089042 255 220 0
0.630982 0.025396 0.026624 255 220 0
0.604976 -0.034116 0.073067 255 220 0
0.619054 0.020968 0.019183 255 220 0
0.586358 -0.036594 0.079539 255 220 0
0.643557 0.054513 0.039724 255 220 0
0.599482 -0.045520 0.045966 255 220 0
0.640100 0.007215 0.055949 255 220 0
0.616228 0.099344 0.060771 255 220 0
0.610305 -0.028555 0.035494 255 220 0
0.626178 0.099399 0.062024 255 220 0
0.554012 -0.032909 0.013761 255 220 0
0.594196 -0.022092 0.018076 255 220 0
0.566973 -0.010765 0.014649 255 220 0
0.553452 -0.010052 0.041934 255 220 0
0.624560 0.062453 0.024066 255 220 0
0.637450 0.025230 0.033528 255 220 0
0.555267 -0.017239 0.054384 255 220 0
0.610232 -0.035662 0.048449 255 220 0
0.594420 0.062745 0.020274 255 220 0
0.566099 0.010152 0.020970 255 220 0
0.617170 0.086310 0.034132 255 220 0
0.573217 -0.054986 0.024203 255 220 0
0.640136 0.061823 0.036446 255 220 0
0.606542 0.065410 0.019445 255 220 0
0.631294 0.021961 0.092322 255 220 0
0.608688 0.012533 0.015578 255 220 0
0.542982 -0.047115 0.040213 255 220 0
0.559347 -0.013127 0.061652 255 220 0
0.572959 0.023052 0.017854 255 220 0
0.646542 0.024440 0.061345 255 220 0
0.647746 0.048055 0.075691 255 220 0
0.593842 -0.033033 0.022543 255 220 0
0.591591 0.079983 0.078199 255 220 0
0.543882 -0.033739 0.036229 255 220 0
0.597780 0.012978 0.011868 255 220 0
0.596571 0.015152 0.011392 255 220 0
0.644524 0.025991 0.045612 255 220 0
0.589740 0.080323 0.043571 255 220 0
0.638616 0.020820 0.037011 255 220 0
0.579334 0.058456 0.031534 255 220 0
0.609086 0.047245 0.014462 255 220 0
0.633194 0.095795 0.072885 255 220 0
0.595120 -0.011641 0.094247 255 220 0
0.612194 0.059191 0.100025 255 220 0
0.585421 0.062540 0.026666 255 220 0
0.645236 0.043291 0.080170 255 220 0
0.623791 0.098842 0.072196 255 220 0
0.630051 0.064362 0.028161 255 220 0
0.555273 -0.004828 0.043695 255 220 0
0.580585 0.055393 0.026658 255 220 0
0.591431 -0.007379 0.094270 255 220 0
0.572293 0.021819 0.018115 255 220 0
0.582803 0.040971 0.088237 255 220 0
0.625664 0.099007 0.059317 255 220 0
0.619249 -0.018264 0.075997 255 220 0
0.557876 -0.002626 0.026939 255 220 0
0.625971 -0.011875 0.072438 255 220 0
0.579938 0.024483 0.013637 255 220 0
0.618514 0.000523 0.024898 255 220 0
0.565181 -0.063453 0.038808 255 220 0
0.555976 -0.011910 0.053834 255 220 0
0.617045 -0.004954 0.026092 255 220 0
0.578100 0.046593 0.080256 255 220 0
0.565129 0.000940 0.070513 255 220 0
0.574869 0.041892 0.024606 255 220 0
0.590723 0.084387 0.061434 255 220 0
0.576179 -0.012699 0.084239 255 220 0
0.610901 0.066383 0.098672 255 220 0
0.575212 0.033414 0.019436 255 220 0
0.645195 0.036351 0.078415 255 220 0
0.649302 0.054798 0.052908 255 220 0
0.568376 0.026322 0.025201 255 220 0
0.589583 0.041599 0.094198 255 220 0
0.541770 -0.037839 0.024059 255 220 0
0.556895 -0.048854 0.013886 255 220 0
0.614788 0.085872 0.033452 255 220 0
0.592535 0.082962 0.043477 255 220 0
0.577547 -0.005205 0.086316 255 220 0
0.553648 -0.015695 0.022733 255 220 0
0.606702 -0.017447 0.090280 255 220 0
0.605240 0.065596 0.097763 255 220 0
0.612400 -0.030587 0.067306 255 220 0
0.574856 -0.055799 0.060893 255 220 0
0.548211 -0.032809 0.017215 255 220 0
0.587140 -0.032814 0.082285 255 220 0
0.569069 -0.048867 0.064649 255 220 0
0.565844 -0.005055 0.016640 255 220 0
0.559251 0.009002 0.044487 255 220 0
0.587813 0.006951 0.011623 255 220 0
0.603821 0.045042 0.013294 255 220 0
0.599737 0.029501 0.100861 255 220 0
0.609750 0.096683 0.054972 255 220 0
0.640539 0.084526 0.050220 255 220 0
0.579126 0.060807 0.034709 255 220 0
0.579818 0.068724 0.048587 255 220 0
0.588641 -0.047934 0.067417 255 220 0
0.624002 0.018422 0.022910 255 220 0
0.593424 0.077864 0.033999 255 220 0
0.580282 -0.056651 0.034758 255 220 0
0.553159 -0.056501 0.047474 255 220 0
0.578384 0.049116 0.079435 255 220 0
0.587910 0.076566 0.075831 255 220 0
0.594570 -0.019289 0.091153 255 220 0
0.564041 -0.019359 0.013839 255 220 0
0.580550 -0.047132 0.021975 255 220 0
0.646481 0.024268 0.058937 255 220 0
0.626042 -0.013274 0.069720 255 220 0
0.561701 -0.011288 0.065994 255 220 0
0.646397 0.072447 0.052310 255 220 0
0.619399 -0.013777 0.033689 255 220 0
0.572317 0.051523 0.057811 255 220 0
0.588020 -0.043510 0.024854 255 220 0
0.549305 -0.041033 0.014111 255 220 0
0.591039 -0.051621 0.042320 255 220 0
0.632297 0.053250 0.026413 255 220 0
0.635911 0.086747 0.082946 255 220 0
0.567376 0.037344 0.052190 255 220 0
0.598470 0.072955 0.025460 255 220 0
0.591046 -0.000145 0.095405 255 220 0
0.640521 0.010637 0.069118 255 220 0
0.627556 0.004181 0.087279 255 220 0
0.618572 -0.016221 0.034693 255 220 0
0.589371 0.071521 0.083474 255 220 0
0.609275 0.021203 0.101349 255 220 0
0.587318 -0.052225 0.035617 255 220 0
0.608479 0.062620 0.099154 255 220 0
0.586942 0.049427 0.090453 255 220 0
0.627853 0.091844 0.045113 255 220 0
0.620358 0.011676 0.096161 255 220 0
0.573601 0.055866 0.049282 255 220 0
0.642867 0.028069 0.079624 255 220 0
0.603714 0.054133 0.099476 255 220 0
0.621517 0.097409 0.076016 255 220 0
0.583654 0.035749 0.090024 255 220 0
0.633229 0.033170 0.027005 255 220 0
0.633388 0.068551 0.093089 255 220 0
0.559297 -0.001980 0.057685 255 220 0
0.563325 -0.030754 0.068237 255 220 0
0.548529 -0.048656 0.015354 255 220 0
0.606827 0.028517 0.012635 255 220 0
0.583266 -0.007955 0.012270 255 220 0
0.589162 -0.036646 0.021224 255 220 0
0.594706 -0.042918 0.070136 255 220 0
0.543369 -0.053318 0.036763 255 220 0
0.607542 -0.001533 0.097441 255 220 0
0.608594 0.001697 0.018282 255 220 0
0.616040 -0.008244 0.090151 255 220 0
0.555704 -0.050036 0.014323 255 220 0
0.564256 -0.016166 0.071115 255 220 0
0.559542 -0.061981 0.045981 255 220 0
0.564672 0.019757 0.061965 255 220 0
0.599970 -0.000071 0.014788 255 220 0
0.596161 0.047243 0.097519 255 220 0
0.627740 0.058046 0.024557 255 220 0
0.649566 0.051685 0.071012 255 220 0
0.616751 0.093611 0.043757 255 220 0
0.581663 -0.020991 0.013243 255 220 0
0.591302 0.078059 0.080177 255 220 0
0.626539 -0.005033 0.080501 255 220 0
0.600949 -0.018097 0.091731 255 220 0
0.561301 0.011276 0.056096 255 220 0
0.595397 -0.033187 0.023778 255 220 0
0.620819 0.093660 0.082179 255 220 0
0.616208 0.004480 0.021862 255 220 0
0.620912 -0.007475 0.030933 255 220 0
0.594898 0.084168 0.041787 255 220 0
0.572035 -0.007733 0.081249 255 220 0
0.567837 -0.013507 0.013797 255 220 0
0.560819 0.014335 0.047926 255 220 0
0.566013 0.033214 0.047941 255 220 0
0.587453 0.078748 0.045907 255 220 0
0.637249 0.013276 0.039104 255 220 0
0.622510 0.084623 0.034235 255 220 0
0.650274 0.043118 0.065006 255 220 0
0.606425 -0.038756 0.059878 255 220 0
0.566893 0.013303 0.021165 255 220 0
0.626939 -0.005470 0.079350 255 220 0
0.562027 -0.006804 0.018861 255 220 0
0.574453 0.023150 0.016637 255 220 0
0.560519 -0.009138 0.063020 255 220 0
0.580700 0.042516 0.085542 255 220 0
0.591443 0.061543 0.090868 255 220 0
0.554783 -0.046711 0.013233 255 220 0
0.646516 0.034654 0.074567 255 220 0
0.641749 0.027252 0.081328 255 220 0
0.630713 0.068305 0.030137 255 220 0
0.629582 0.098674 0.064503 255 220 0
0.555463 -0.020949 0.017519 255 220 0
0.547152 -0.025647 0.036788 255 220 0
0.642752 0.020558 0.045179 255 220 0
0.581014 0.064211 0.035087 255 220 0
0.569557 -0.014656 0.013159 255 220 0
0.590090 -0.007303 0.093723 255 220 0
0.571862 0.031522 0.074749 255 220 0
0.569102 0.025035 0.071268 255 220 0
0.568862 -0.027540 0.012267 255 220 0
0.596627 0.086347 0.043561 255 220 0
0.620602 0.069020 0.024610 255 220 0
0.591290 0.082029 0.073966 255 220 0
0.570206 -0.012408 0.013309 255 220 0
0.568079 0.039725 0.045035 255 220 0
0.621093 -0.012233 0.034628 255 220 0
0.628376 0.084780 0.037577 255 220 0
0.648436 0.041135 0.072008 255 220 0
0.561836 -0.003185 0.064232 255 220 0
0.543071 -0.039899 0.039215 255 220 0
0.559794 0.010288 0.048233 255 220 0
0.603700 0.050129 0.014355 255 220 0
0.609478 -0.003332 0.020298 255 220 0
0.574454 0.024091 0.081828 255 220 0
0.571909 0.041867 0.068093 255 220 0
0.583586 0.054367 0.022502 255 220 0
0.605579 0.021268 0.012835 255 220 0
0.544869 -0.051539 0.041492 255 220 0
0.625678 -0.007680 0.037269 255 220 0
0.614987 0.084308 0.032081 255 220 0
0.581830 0.054375 0.024315 255 220 0
0.650748 0.056098 0.060726 255 220 0
0.574804 0.013407 0.083771 255 220 0
0.574770 0.056969 0.042827 255 220 0
0.548033 -0.026319 0.022195 255 220 0
0.621350 0.056889 0.099267 255 220 0
0.630051 0.080414 0.035651 255 220 0
0.647061 0.049579 0.046177 255 220 0
0.622226 -0.021426 0.062274 255 220 0
0.562542 0.002623 0.064047 255 220 0
0.569101 0.029946 0.068351 255 220 0
0.589307 0.082240 0.065852 255 220 0
0.592556 0.027879 0.010958 255 220 0
0.591361 0.069723 0.027100 255 220 0
0.603717 -0.033055 0.076372 255 220 0
0.603141 -0.042460 0.047225 255 220 0
0.573549 0.040922 0.073179 255 220 0
0.593862 0.023418 0.010754 255 220 0
0.589737 -0.043515 0.026420 255 220 0
0.615992 0.047709 0.101111 255 220 0
0.624922 -0.018352 0.054244 255 220 0
0.544017 -0.031564 0.032962 255 220 0
0.618542 0.029787 0.017469 255 220 0
0.607278 0.092945 0.045547 255 220 0
0.577614 0.064846 0.050076 255 220 0
0.639202 0.022725 0.036983 255 220 0
0.625434 0.097493 0.075442 255 220 0
0.546403 -0.026024 0.027865 255 220 0
0.598842 0.066199 0.020628 255 220 0
0.605256 0.090684 0.079053 255 220 0
0.641920 0.031933 0.082888 255 220 0
0.626239 0.076278 0.094350 255 220 0
0.592444 -0.051304 0.051180 255 220 0
0.638339 0.012980 0.041308 255 220 0
0.621891 0.058577 0.098976 255 220 0
0.630044 -0.008233 0.047245 255 220 0
0.634478 -0.000530 0.069270 255 220 0
0.621258 -0.020236 0.044360 255 220 0
0.556914 -0.008872 0.054752 255 220 0
0.586299 -0.055310 0.046429 255 220 0
0.621210 0.099664 0.060291 255 220 0
0.553710 -0.014105 0.048642 255 220 0
0.583948 -0.050921 0.065810 255 220 0
0.564997 -0.062791 0.033664 255 220 0
0.593442 0.085647 0.048681 255 220 0
0.570589 0.002617 0.015566 255 220 0
0.637765 0.093980 0.061280 255 220 0
0.622857 -0.004961 0.085657 255 220 0
0.598884 0.046123 0.098970 255 220 0
0.568356 0.038911 0.039346 255 220 0
0.625187 -0.001542 0.031948 255 220 0
0.617890 -0.026088 0.046839 255 220 0
0.595620 0.047739 0.014221 255 220 0
0.596452 -0.013919 0.016660 255 220 0
0.594172 0.009438 0.097834 255 220 0
0.576447 0.046825 0.076512 255 220 0
0.619972 0.070489 0.097497 255 220 0
0.618016 0.044677 0.101037 255 220 0
0.558186 0.002893 0.032850 255 220 0
0.568367 -0.041087 0.068632 255 220 0
0.616045 0.077787 0.027585 255 220 0
0.595064 -0.042885 0.031701 255 220 0
0.566455 -0.006095 0.074138 255 220 0
0.584828 0.041621 0.015655 255 220 0
0.621259 0.086462 0.035326 255 220 0
0.568953 0.042882 0.050170 255 220 0
0.602778 0.009715 0.013775 255 220 0
0.590922 0.075691 0.034051 255 220 0
0.597462 0.025800 0.100080 255 220 0
0.605743 -0.023479 0.086050 255 220 0
0.570726 -0.033770 0.012855 255 220 0
0.643562 0.017194 0.067802 255 220 0
0.578816 -0.035460 0.077681 255 220 0
0.640345 0.050750 0.088126 255 220 0
0.636721 0.022697 0.086838 255 220 0
0.635727 0.005908 0.076180 255 220 0
0.562050 0.014563 0.031837 255 220 0
0.578455 0.065089 0.063528 255 220 0
0.599959 -0.045583 0.051275 255 220 0
0.622351 -0.019423 0.067279 255 220 0
0.611282 0.093317 0.079237 255 220 0
0.545407 -0.056341 0.036563 255 220 0
0.593431 -0.047323 0.036041 255 220 0
0.646975 0.035202 0.046851 255 220 0
0.575022 0.022875 0.082788 255 220 0
0.564849 0.007004 0.068200 255 220 0
0.551995 -0.015863 0.043855 255 220 0
0.605035 -0.023802 0.086220 255 220 0
0.593163 -0.050880 0.049395 255 220 0
0.602377 -0.019592 0.090552 255 220 0
0.641859 0.010954 0.060996 255 220 0
0.562240 0.006312 0.061931 255 220 0
0.556864 -0.014932 0.057006 255 220 0
0.603812 0.011044 0.013878 255 220 0
0.549686 -0.060012 0.029216 255 220 0
0.623294 0.068492 0.097298 255 220 0
0.601589 0.077250 0.090777 255 220 0
0.568792 -0.001169 0.077396 255 220 0
0.578015 -0.058296 0.036064 255 220 0
0.602155 0.058818 0.098183 255 220 0
0.602686 0.083576 0.086371 255 220 0
0.593379 0.081944 0.039979 255 220 0
0.609173 -0.003568 0.020195 255 220 0
0.631079 0.046710 0.024546 255 220 0
0.551286 -0.038927 0.052126 255 220 0
0.596808 -0.045962 0.061120 255 220 0
0.572117 0.027759 0.077052 255 220 0
0.562909 -0.014240 0.068795 255 220 0
0.571791 -0.028054 0.012446 255 220 0
0.601371 -0.001907 0.097877 255 220 0
0.615906 0.076368 0.095743 255 220 0
0.577206 -0.010537 0.085371 255 220 0
0.612757 0.093370 0.043712 255 220 0
0.634606 0.008596 0.081164 255 220 0
0.636507 0.016727 0.035929 255 220 0
0.555979 -0.021869 0.057107 255 220 0
0.589544 0.042392 0.014092 255 220 0
0.604650 0.094719 0.055598 255 220 0
0.629776 -0.006295 0.043311 255 220 0
0.598426 0.016748 0.099955 255 220 0
0.581140 0.023785 0.013034 255 220 0
0.619780 0.056623 0.019922 255 220 0
0.593205 -0.030994 0.021052 255 220 0
0.590348 -0.052577 0.045060 255 220 0
0.592085 0.085102 0.051562 255 220 0
0.597790 0.087239 0.043672 255 220 0
0.606522 -0.038452 0.044643 255 220 0
0.627981 0.065390 0.027162 255 220 0
0.583122 0.064118 0.079010 255 220 0
0.566867 -0.009994 0.074932 255 220 0
0.570316 -0.007389 0.079421 255 220 0
0.608983 0.049812 0.014911 255 220 0
0.628436 0.098437 0.070075 255 220 0
0.586374 0.051548 0.018872 255 220 0
0.632914 0.020296 0.029971 255 220 0
0.637994 0.085677 0.047613 255 220 0
0.632209 0.047896 0.095119 255 220 0
0.633361 0.028187 0.092226 255 220 0
0.619486 -0.007791 0.029662 255 220 0
0.617698 0.061309 0.020462 255 220 0
0.571458 0.050319 0.051365 255 220 0
0.578363 0.042938 0.082293 255 220 0
0.563019 0.022747 0.044746 255 220 0
0.629713 0.032763 0.024112 255 220 0
0.608625 0.079918 0.092415 255 220 0
0.644280 0.058498 0.041816 255 220 0
0.643136 0.049394 0.084405 255 220 0
0.600621 0.048977 0.099240 255 220 0
0.629420 0.098216 0.060105 255 220 0
0.624656 0.099832 0.064690 255 220 0
0.585460 0.054956 0.087333 255 220 0
0.593221 -0.014684 0.015496 255 220 0
0.612975 0.036005 0.102215 255 220 0
0.589795 0.080740 0.044439 255 220 0
0.636569 0.000588 0.061295 255 220 0
0.619972 0.059227 0.099332 255 220 0
0.597774 0.034951 0.099833 255 220 0
0.594617 0.064474 0.021145 255 220 0
0.579559 0.035216 0.016492 255 220 0
0.634127 0.031292 0.028213 255 220 0
0.599460 -0.019702 0.091034 255 220 0
0.602338 -0.023682 0.023760 255 220 0
0.617708 0.076229 0.095819 255 220 0
0.634763 0.016731 0.033547 255 220 0
0.620069 0.092342 0.083786 255 220 0
0.562303 -0.023001 0.068110 255 220 0
0.602871 0.033190 0.101611 255 220 0
0.598788 0.020416 0.011246 255 220 0
0.641438 0.068125 0.086059 255 220 0
0.570180 -0.006530 0.079294 255 220 0
0.644576 0.068673 0.081265 255 220 0
0.568666 0.027244 0.025251 255 220 0
0.611188 0.026083 0.014394 255 220 0
0.643245 0.035873 0.038858 255 220 0
0.637988 0.070531 0.037534 255 220 0
0.584925 0.077296 0.060864 255 220 0
0.598553 -0.044963 0.060327 255 220 0
0.596716 -0.045536 0.038555 255 220 0
0.642186 0.064438 0.040168 255 220 0
0.601918 -0.043229 0.045538 255 220 0
0.604338 0.094711 0.065738 255 220 0
0.570477 0.033215 0.070038 255 220 0
0.551758 -0.013740 0.030925 255 220 0
0.578249 -0.009623 0.086281 255 220 0
0.585269 0.077938 0.058849 255 220 0
0.613557 0.051575 0.100926 255 220 0
0.606462 -0.030611 0.076848 255 220 0
0.629629 0.000885 0.081880 255 220 0
0.631694 0.072427 0.093225 255 220 0
0.568285 -0.053762 0.060583 255 220 0
0.633184 0.011599 0.085494 255 220 0
0.633251 -0.002709 0.046972 255 220 0
0.590960 0.026035 0.010963 255 220 0
0.548109 -0.024298 0.038824 255 220 0
0.602615 -0.043345 0.051545 255 220 0
0.632865 0.023675 0.028855 255 220 0
0.645535 0.023430 0.068307 255 220 0
0.593608 0.064946 0.091357 255 220 0
0.599979 0.021951 0.011354 255 220 0
0.579818 -0.036541 0.016172 255 220 0
0.609939 0.097152 0.067754 255 220 0
0.596329 -0.008505 0.015267 255 220 0
0.607164 0.049692 0.014580 255 220 0
0.647448 0.034450 0.048709 255 220 0
0.587961 0.046173 0.015851 255 220 0
0.621388 -0.023014 0.060060 255 220 0
