ply
format ascii 1.0
element vertex 256
property float x
property float y
property float z
end_header
0.570820 0.046007 0.213880
0.588154 0.140487 0.166332
0.541611 -0.056632 0.218101
0.501164 0.025445 0.136771
0.630424 0.060509 0.145151
0.503010 0.010203 0.219391
0.545658 0.077300 0.143089
0.590194 -0.016864 0.219794
0.567879 0.106290 0.210872
0.623028 0.068531 0.202661
0.513275 -0.008404 0.171821
0.548882 0.001653 0.241240
0.593595 0.094393 0.145533
0.526147 0.049902 0.198872
0.504830 -0.034300 0.236057
0.609085 0.024634 0.209661
0.553509 -0.014272 0.196777
0.583982 0.074402 0.182647
0.508367 0.062899 0.149067
0.492961 0.024818 0.175730
0.525285 0.036638 0.234167
0.547442 0.075146 0.216785
0.619284 0.085014 0.169585
0.580063 0.020177 0.237480
0.549693 0.020884 0.201737
0.530270 0.043758 0.130122
0.580849 0.007790 0.197266
0.583895 0.110745 0.181772
0.538621 -0.031225 0.239448
0.517107 -0.017539 0.207970
0.524382 0.019354 0.158312
0.598065 0.047407 0.190641
0.566143 -0.036739 0.219387
0.490951 -0.001334 0.192269
0.582929 0.076605 0.213480
0.517313 0.021262 0.195045
0.521586 -0.007181 0.237780
0.553579 0.032388 0.236248
0.554372 0.089016 0.193130
0.627899 0.059327 0.176667
0.598275 0.053918 0.217668
0.604979 0.069781 0.148596
0.526591 -0.042140 0.200844
0.600911 0.093778 0.192756
0.498132 0.004676 0.152390
0.509773 0.043469 0.168723
0.545125 0.049442 0.218487
0.603864 0.008900 0.229434
0.575458 -0.007856 0.238497
0.535741 0.057302 0.152638
0.601356 0.104781 0.165822
0.568800 0.062585 0.196061
0.530008 0.001572 0.194190
0.489978 0.035773 0.154477
0.577617 0.132577 0.186576
0.619716 0.046739 0.212409
0.600133 0.068888 0.198608
0.525423 0.068996 0.135082
0.586360 0.024829 0.211935
0.526612 0.014468 0.231438
0.503341 -0.034648 0.203904
0.516537 0.034429 0.213866
0.603974 0.068120 0.176339
0.537953 -0.034814 0.217910
0.517746 0.039132 0.148995
0.557413 -0.021050 0.238072
0.553463 0.010881 0.220270
0.618539 0.041622 0.190402
0.551294 -0.035297 0.198783
0.572852 -0.030491 0.200514
0.634249 0.072547 0.162137
0.594350 0.085528 0.164224
0.564502 0.086754 0.216062
0.512682 0.012474 0.173435
0.565441 0.111782 0.189839
0.581591 0.089544 0.196605
0.598927 0.004352 0.205242
0.542659 0.059177 0.131753
0.618344 0.083326 0.143075
0.557481 0.052779 0.233573
0.510426 -0.001119 0.190333
0.541710 0.061204 0.202381
0.506083 -0.009590 0.226122
0.615841 0.081578 0.189834
0.567642 0.064954 0.216798
0.576002 0.039086 0.236136
0.617249 0.060848 0.160479
0.577818 -0.026190 0.233108
0.488906 0.006429 0.169068
0.576681 0.123790 0.169709
0.544184 0.041622 0.201203
0.509936 0.041266 0.131189
0.531114 -0.007481 0.215733
0.500583 -0.008395 0.207015
0.513589 0.010675 0.143629
0.580058 0.116089 0.200648
0.537254 -0.052886 0.235687
0.535850 -0.019700 0.196918
0.563513 0.004623 0.202456
0.502434 0.022512 0.155140
0.560548 0.031304 0.215868
0.592387 0.126932 0.178296
0.529555 0.057904 0.220609
0.582170 0.049201 0.198542
0.607845 0.104848 0.147832
0.522222 -0.038178 0.238974
0.559564 0.015835 0.238415
0.586284 0.092246 0.178517
0.515098 0.001065 0.210241
0.632838 0.072557 0.186877
0.533602 0.027223 0.193525
0.551233 -0.038793 0.230177
0.501771 0.015875 0.187547
0.598157 0.037860 0.208075
0.502820 -0.025560 0.218408
0.520560 0.002774 0.161160
0.607184 0.040349 0.222234
0.540708 0.050181 0.234707
0.591471 0.029631 0.229734
0.608364 0.089128 0.155061
0.612809 0.062303 0.189089
0.519293 -0.029379 0.219346
0.567665 0.081188 0.199813
0.500519 0.049546 0.154710
0.582445 0.059721 0.211957
0.604967 0.088072 0.176689
0.542897 0.016064 0.236886
0.555037 0.070218 0.199880
0.568915 0.093911 0.187614
0.515340 0.056177 0.134184
0.609605 0.057673 0.206304
0.514655 0.028149 0.170479
0.513011 0.022671 0.224038
0.521247 0.030913 0.135850
0.500384 -0.007072 0.162717
0.625917 0.053907 0.197483
0.519343 0.055184 0.157124
0.487473 0.021789 0.160794
0.617731 0.076127 0.156811
0.571370 -0.015081 0.201101
0.583654 0.044040 0.222329
0.576147 0.032369 0.203063
0.506449 0.015492 0.204339
0.527181 0.073988 0.149555
0.499781 0.000403 0.177817
0.581392 -0.029734 0.218770
0.521883 -0.022313 0.237169
0.592542 0.003574 0.237599
0.590515 0.058797 0.184933
0.560586 0.052327 0.205290
0.606420 0.035195 0.195680
0.594119 0.107046 0.153247
0.597835 -0.000429 0.219855
0.570556 0.005957 0.238091
0.560168 -0.005991 0.236000
0.592950 0.080990 0.203840
0.596769 0.103938 0.182119
0.600373 0.078908 0.186957
0.557041 0.096617 0.208491
0.552805 0.062090 0.219479
0.539468 0.034704 0.236957
0.629440 0.075184 0.148677
0.621168 0.070894 0.170588
0.531893 0.044306 0.224063
0.546280 -0.009819 0.233290
0.560425 0.043717 0.222987
0.498177 0.035800 0.167095
0.503402 0.050928 0.139215
0.504071 0.037273 0.146797
0.579424 0.102906 0.193145
0.572012 0.093709 0.206453
0.488267 0.010688 0.182328
0.539177 0.049065 0.140691
0.534919 0.005146 0.240077
0.588283 -0.004539 0.204514
0.588594 0.099356 0.166027
0.595642 0.065971 0.211305
0.605465 0.075361 0.162930
0.542541 0.003832 0.199029
0.594366 0.016884 0.237528
0.549982 0.082250 0.203870
0.522979 0.046206 0.213544
0.538281 -0.032728 0.204710
0.571461 0.030888 0.223433
0.568677 0.026923 0.238507
0.608299 0.077421 0.136853
0.586558 0.123806 0.192241
0.560911 0.030956 0.202760
0.514138 0.003210 0.234847
0.530079 0.056242 0.134007
0.540020 0.064067 0.215830
0.585967 0.064747 0.200548
0.559733 0.075732 0.220774
0.526021 0.023852 0.145505
0.584733 -0.015339 0.233684
0.607031 0.024769 0.222303
0.572053 0.120015 0.182660
0.504441 0.027679 0.180364
0.541667 0.071840 0.131770
0.544960 0.065318 0.147129
0.528768 0.039736 0.142809
0.516695 -0.007600 0.219268
0.503437 0.003302 0.203183
0.549410 0.037713 0.221780
0.619237 0.065943 0.146692
0.510997 -0.014201 0.197589
0.591765 0.014126 0.208436
0.632482 0.060611 0.157427
0.570534 0.070551 0.205556
0.580827 0.139031 0.176545
0.528759 -0.008757 0.200849
0.513730 0.027511 0.150029
0.588866 0.125513 0.166567
0.531236 -0.013789 0.241655
0.534117 0.045666 0.208322
0.522651 0.059037 0.143661
0.612479 0.050418 0.184305
0.570646 0.014618 0.202763
0.499684 0.015674 0.145329
0.533037 0.080227 0.140763
0.586544 -0.023849 0.209319
0.506763 0.003519 0.167583
0.619942 0.070789 0.183938
0.500391 -0.009188 0.185286
0.600319 0.049869 0.205679
0.531054 0.058969 0.207737
0.533473 0.064807 0.143467
0.611517 0.073914 0.198045
0.589825 0.085005 0.189101
0.512113 0.050762 0.147496
0.611947 0.036246 0.210749
0.596087 0.032231 0.218469
0.578239 0.104111 0.205014
0.622141 0.058193 0.208652
0.632817 0.069841 0.173709
0.604407 0.013976 0.217969
0.570775 -0.003021 0.196956
0.591660 0.092749 0.201974
0.533634 0.023433 0.237314
0.556506 0.012167 0.196609
0.509638 0.024666 0.211080
0.559993 0.100493 0.191630
0.593632 0.018725 0.225854
0.552742 0.086413 0.215794
0.590385 0.098729 0.191099
0.508981 0.000414 0.153777
0.562611 0.054442 0.217738
0.552400 -0.040949 0.218754
0.564143 0.043239 0.234536
0.630076 0.059698 0.188250
0.547845 0.057470 0.228962
0.573496 0.024195 0.214200
0.569741 -0.035555 0.230300
0.494225 0.027103 0.148186
0.520112 0.000834 0.172473
0.497383 0.017262 0.164415
