ply
format ascii 1.0
element vertex 256
property float x
property float y
property float z
end_header
0.624390 -0.008259 0.226893
0.531038 0.009964 0.169560
0.653368 0.086382 0.184576
0.566924 -0.098202 0.223193
0.671841 0.002399 0.146136
0.550721 -0.024918 0.241241
0.585453 0.051216 0.167375
0.624798 -0.073979 0.220275
0.631584 0.052545 0.230747
0.679199 -0.006735 0.204361
0.654146 0.033983 0.181691
0.544047 -0.033043 0.191969
0.594777 -0.049393 0.251957
0.581144 0.010217 0.221945
0.541762 -0.070575 0.251080
0.652173 -0.039758 0.215746
0.587432 -0.057383 0.205759
0.653666 0.020872 0.219411
0.550110 0.041530 0.184430
0.535015 0.001386 0.208239
0.581891 -0.008676 0.254579
0.629074 -0.039556 0.244446
0.613050 0.025728 0.216350
0.595103 -0.024061 0.216051
0.559695 0.024064 0.156001
0.619833 -0.043965 0.203625
0.645700 -0.004165 0.198130
0.553736 -0.052578 0.222811
0.575025 -0.077374 0.247906
0.648727 0.058687 0.203070
0.557286 -0.005372 0.180331
0.678522 0.013808 0.175658
0.664611 0.059034 0.165461
0.596158 -0.086228 0.222112
0.563683 -0.013762 0.216198
0.602630 0.010736 0.242910
0.529351 -0.025590 0.219821
0.661748 0.030054 0.151316
0.565899 -0.049767 0.252971
0.653701 -0.007105 0.226299
0.607589 -0.020676 0.250273
0.554408 -0.077252 0.211450
0.674288 0.018965 0.200988
0.527636 -0.013058 0.181515
0.622459 0.030091 0.240506
0.549885 0.017086 0.193532
0.637161 0.021532 0.199585
0.660700 -0.024934 0.195733
0.616534 -0.065001 0.242618
0.644196 -0.056563 0.233755
0.575184 0.031288 0.176696
0.629995 0.044124 0.207533
0.637407 0.011471 0.234164
0.569627 -0.035618 0.210151
0.666761 -0.004995 0.168107
0.661979 0.039005 0.207128
0.637282 -0.022439 0.213435
0.562411 0.047995 0.166249
0.576099 -0.029474 0.248694
0.526950 0.013927 0.191189
0.600152 -0.005195 0.226875
0.569822 -0.004624 0.236373
0.535230 -0.064502 0.220150
0.667389 -0.022255 0.217808
0.657371 0.011447 0.187918
0.569959 -0.076565 0.226672
0.595540 -0.072546 0.244111
0.598566 -0.037987 0.231921
0.663469 0.053108 0.185948
0.579387 -0.077032 0.205342
0.646666 0.079378 0.206700
0.620451 -0.029649 0.223741
0.601389 -0.078601 0.203278
0.549897 -0.030032 0.214415
0.656506 0.016827 0.166384
0.545983 0.025524 0.172072
0.549309 -0.013448 0.197186
0.616929 -0.001955 0.249614
0.665000 0.004656 0.212863
0.637076 -0.053556 0.207223
0.624546 0.009673 0.213169
0.670457 0.031350 0.170454
0.574964 0.036724 0.155296
0.679128 -0.005404 0.184666
0.551396 0.007849 0.165297
0.548761 -0.045705 0.244495
0.630683 -0.020345 0.246499
0.639798 0.070419 0.190484
0.571335 -0.048493 0.229609
0.632973 0.034280 0.224766
0.612443 -0.081955 0.234458
0.524601 -0.013750 0.200400
0.635092 0.065449 0.214614
0.598015 0.017898 0.225494
0.617702 0.014271 0.231437
0.540750 -0.008064 0.169075
0.566688 -0.096775 0.241637
0.569207 -0.057798 0.208762
0.541179 -0.039786 0.228833
0.603377 -0.043272 0.211761
0.654016 0.044086 0.166491
0.661206 -0.007539 0.187159
0.682395 0.004224 0.160737
0.644563 0.037808 0.197485
0.646306 0.051333 0.220681
0.642411 0.007537 0.215609
0.557436 -0.079454 0.249852
0.608624 -0.038331 0.248942
0.585918 0.001674 0.240803
0.546173 -0.010372 0.215253
0.558247 -0.035403 0.229134
0.659491 0.074112 0.195308
0.580560 -0.012218 0.212208
0.583193 -0.086181 0.235336
0.652748 -0.015302 0.210752
0.554236 -0.066687 0.232587
0.550399 -0.021147 0.181489
0.616692 0.039448 0.227461
0.643692 -0.030673 0.227344
0.539718 -0.058481 0.235540
0.656708 0.025891 0.197920
0.562612 0.020948 0.173388
0.670623 0.015640 0.157963
0.537137 -0.024977 0.204568
0.536421 0.027291 0.190209
0.683320 0.006693 0.195195
0.536964 0.002460 0.185567
0.592761 -0.033354 0.250880
0.554234 0.001832 0.196419
0.634001 -0.005128 0.210399
0.644992 0.033268 0.214227
0.564584 -0.016688 0.245382
0.529807 -0.027176 0.188276
0.666960 0.038115 0.192157
0.561182 0.030676 0.186549
0.634301 -0.043638 0.218926
0.543463 0.018726 0.157511
0.600538 -0.000118 0.253777
0.604684 -0.063750 0.206212
0.637207 -0.015140 0.232215
0.553184 -0.018033 0.226651
0.569945 0.049321 0.179627
0.607198 0.024816 0.239110
0.636906 -0.060509 0.220979
0.612510 -0.083586 0.219349
0.665587 0.024325 0.184237
0.561569 -0.064032 0.250293
0.551175 0.035371 0.161801
0.608831 -0.017746 0.216110
0.633155 0.020545 0.218390
0.524492 -0.000294 0.194390
0.667217 0.046225 0.172591
0.550483 0.013550 0.179286
0.615976 -0.050556 0.245070
0.602303 -0.058668 0.243556
0.649581 0.012995 0.200122
0.531063 -0.011385 0.213923
0.615341 0.002118 0.221452
0.669153 0.003859 0.191513
0.656063 0.046837 0.196495
0.595105 -0.014832 0.254141
0.603506 -0.005233 0.240764
0.613845 -0.017372 0.229919
0.587661 -0.058051 0.243240
0.654162 -0.021224 0.226720
0.639711 -0.003239 0.225161
0.664687 0.005665 0.177398
0.590575 0.000560 0.218050
0.662751 0.018713 0.208884
0.641326 -0.044070 0.239466
0.668835 -0.008551 0.215158
0.572549 0.025504 0.163205
0.626908 0.054351 0.217744
0.560476 0.034983 0.172157
0.582490 -0.042126 0.254136
0.623959 0.031844 0.210301
0.624287 -0.058965 0.207493
0.623646 -0.020557 0.213493
0.659119 -0.030825 0.207945
0.582858 -0.037750 0.212597
0.631654 -0.029223 0.233507
0.661009 -0.004385 0.200355
0.649632 -0.017092 0.197757
0.617647 0.043058 0.214284
0.568827 -0.072217 0.214082
0.542470 -0.041037 0.215420
0.539731 0.012433 0.202504
0.620527 -0.030316 0.248661
0.653439 0.051785 0.177406
0.653468 0.068110 0.211071
0.670290 -0.015856 0.191855
0.628923 0.006324 0.225127
0.630493 0.040468 0.236111
0.561527 -0.037400 0.253032
0.643385 0.021045 0.227553
0.654299 0.005617 0.220711
0.661361 0.004821 0.153521
0.678949 -0.002394 0.171565
0.538870 0.036365 0.180844
0.622281 -0.073664 0.235062
0.633612 0.056734 0.205311
0.646659 -0.052275 0.219778
0.603987 0.008048 0.219976
0.547687 0.000861 0.209006
0.576822 0.049068 0.157640
0.583547 0.038873 0.169478
0.555160 -0.041373 0.216051
0.639971 0.061110 0.225397
0.659641 0.031948 0.164084
0.650678 0.071635 0.184323
0.622989 -0.014976 0.238274
0.592474 0.008742 0.249851
0.607194 0.004323 0.231419
0.546520 -0.028547 0.226632
0.636297 0.009689 0.203170
0.619725 0.001143 0.233425
0.648673 0.085749 0.196309
0.562077 0.036550 0.156115
0.573619 -0.059326 0.253882
0.566410 -0.046287 0.215481
0.613123 -0.035800 0.211946
0.529751 -0.001152 0.176319
0.573740 0.056424 0.170372
0.617639 -0.077643 0.209923
0.650424 -0.046513 0.229905
0.673029 0.015713 0.189256
0.539830 -0.019455 0.192334
0.537620 0.013025 0.179396
0.558276 -0.045394 0.235955
0.571680 0.040898 0.170299
0.684525 0.005758 0.182285
0.607797 0.028816 0.227801
0.671855 0.028574 0.158873
0.655309 0.029186 0.209757
0.670764 -0.017131 0.207132
0.607074 -0.051419 0.203926
0.596493 -0.012290 0.215501
0.640797 0.069650 0.203351
0.586304 -0.023984 0.254166
0.598116 -0.033171 0.208525
0.559978 -0.011478 0.233767
0.624119 0.023625 0.225357
0.536939 -0.019456 0.178305
0.663875 0.048208 0.160992
0.632399 -0.032081 0.219012
0.592107 0.008549 0.233644
0.652919 0.012465 0.211319
0.559032 0.045652 0.177593
0.581863 -0.086399 0.223731
0.550432 0.027628 0.183168
0.670573 0.019831 0.169034
0.637206 -0.029679 0.244397
0.551372 -0.003517 0.169333
0.601605 -0.088113 0.232124
0.653988 0.023112 0.177838
0.540869 -0.019709 0.219452
