ply
format ascii 1.0
element vertex 256
property float x
property float y
property float z
end_header
0.614320 0.013845 0.161039
0.509456 0.055752 0.128601
0.640424 0.117800 0.135261
0.557447 -0.076543 0.162171
0.664767 0.041227 0.087047
0.522433 -0.007376 0.178481
0.613720 -0.051321 0.150260
0.622238 0.073647 0.174354
0.578250 -0.022280 0.193268
0.669453 0.016560 0.140896
0.655060 0.067924 0.131655
0.550628 0.087218 0.126799
0.563930 0.012551 0.161983
0.537747 -0.051090 0.195906
0.521452 0.011741 0.136495
0.639903 -0.016203 0.142869
0.574269 -0.034414 0.143928
0.534503 0.043835 0.159736
0.589031 0.031512 0.187587
0.621359 0.048767 0.140309
0.585894 -0.058075 0.179787
0.617526 -0.022429 0.173159
0.547087 -0.031914 0.167915
0.654246 0.091341 0.105558
0.600630 -0.011033 0.140820
0.636560 0.017367 0.133271
0.528711 0.074309 0.147973
0.631307 0.087251 0.143771
0.508199 0.025080 0.165703
0.595811 0.052098 0.164183
0.656728 0.036649 0.117927
0.563781 0.006402 0.193054
0.602153 0.003128 0.188333
0.651421 0.040018 0.150942
0.669001 0.063394 0.106000
0.539283 0.058389 0.125552
0.588237 -0.013485 0.167216
0.642439 0.013688 0.160945
0.545878 -0.022559 0.194160
0.536817 0.015166 0.167815
0.559724 -0.070559 0.188766
0.589500 0.025880 0.160830
0.628101 0.037996 0.164669
0.542918 -0.055092 0.154286
0.557944 -0.012729 0.152851
0.574524 -0.061003 0.141600
0.617357 -0.028808 0.133015
0.561867 -0.043266 0.192766
0.611519 0.070885 0.151595
0.526600 0.034612 0.127482
0.504804 0.036721 0.143715
0.593476 -0.066409 0.157784
0.635207 -0.034492 0.161047
0.525624 -0.043197 0.167150
0.610898 0.043755 0.181162
0.513379 -0.006717 0.149613
0.628743 -0.001434 0.175875
0.638592 0.075840 0.116424
0.549840 -0.002702 0.176475
0.639194 0.060618 0.149521
0.656196 -0.001014 0.149647
0.528986 0.078674 0.123011
0.609673 -0.043880 0.174268
0.623884 -0.000795 0.145772
0.517167 0.055361 0.151590
0.676666 0.038138 0.108196
0.647608 0.055418 0.110267
0.535012 -0.005172 0.159058
0.655526 0.014954 0.121715
0.666869 0.049385 0.133116
0.560999 -0.055122 0.166414
0.634291 0.105534 0.155145
0.534020 0.025537 0.147197
0.620121 0.025847 0.143954
0.596893 -0.028142 0.185641
0.582406 -0.004278 0.148133
0.638733 0.052480 0.129869
0.582819 -0.000570 0.193974
0.570841 0.031943 0.165289
0.676580 0.031069 0.128946
0.606532 0.022759 0.184585
0.636493 0.085393 0.162771
0.619425 0.055488 0.162665
0.611528 -0.004635 0.167209
0.571518 0.022970 0.186650
0.515360 0.007376 0.166996
0.505114 0.014701 0.145782
0.662000 0.079422 0.117968
0.622714 -0.020817 0.149140
0.581384 -0.037415 0.180612
0.593220 -0.028053 0.138914
0.635890 0.035330 0.138219
0.556908 -0.035288 0.150185
0.539964 0.058431 0.143901
0.658695 0.030486 0.100593
0.560359 -0.011645 0.196087
0.534058 -0.020460 0.173466
0.643299 0.100389 0.139652
0.618832 0.086845 0.156895
0.509010 0.042628 0.161365
0.548669 0.071547 0.135155
0.523825 0.040056 0.145168
0.597076 0.004817 0.152702
0.607918 0.060767 0.175222
0.606446 0.037054 0.165440
0.652578 0.001145 0.132262
0.589086 0.016071 0.175460
0.651888 0.025624 0.140823
0.535264 0.086888 0.136948
0.654779 0.066030 0.096578
0.554080 -0.019379 0.177638
0.637505 0.069012 0.134303
0.586314 0.038712 0.172258
0.532843 -0.038082 0.181811
0.627907 0.071556 0.156296
0.528211 -0.003303 0.142046
0.569883 -0.057178 0.186265
0.661815 0.046981 0.103099
0.636218 -0.006214 0.156022
0.626642 0.102806 0.137922
0.523717 0.063760 0.132592
0.525769 0.031907 0.167782
0.639562 0.027714 0.152483
0.560456 -0.055691 0.148365
0.577335 0.013585 0.152489
0.649205 0.083157 0.127552
0.512767 0.026790 0.131385
0.530445 0.008972 0.152540
0.580028 -0.067073 0.167693
0.604730 -0.057227 0.166696
0.546598 -0.045870 0.175730
0.631977 -0.030685 0.140619
0.640602 0.005842 0.146647
0.580926 -0.020715 0.148368
0.606892 0.054868 0.153036
0.665245 0.060479 0.122090
0.614595 -0.009583 0.181687
0.650769 0.055361 0.139138
0.654709 0.014104 0.150384
0.626464 0.022953 0.160702
0.545900 -0.013341 0.166368
0.528100 0.049339 0.130710
0.601229 0.010271 0.167668
0.583718 -0.056059 0.152841
0.521349 -0.010281 0.163845
0.627919 0.006837 0.163470
0.663449 0.034148 0.135306
0.587603 -0.055224 0.137578
0.665758 0.025015 0.116682
0.636241 0.048660 0.158551
0.536132 0.001039 0.172361
0.604621 0.024749 0.157784
0.541204 0.081888 0.115683
0.632858 -0.023658 0.170535
0.669784 0.043984 0.119631
0.650914 0.076483 0.108742
0.546928 0.002490 0.162282
0.614380 0.007805 0.182073
0.548591 -0.036707 0.192455
0.559235 -0.025167 0.160263
0.645825 0.035794 0.127745
0.541422 -0.011220 0.186426
0.584485 0.019065 0.193065
0.643416 0.093993 0.152445
0.652991 0.053300 0.123613
0.598118 0.027952 0.172614
0.510617 0.041737 0.130356
0.560467 0.017189 0.174833
0.627980 0.012242 0.149033
0.596039 -0.049645 0.174647
0.587719 -0.013169 0.188754
0.613250 0.037611 0.146042
0.624344 -0.008942 0.164686
0.572193 -0.008606 0.189782
0.530310 0.058225 0.154201
0.602457 -0.059077 0.150433
0.547236 -0.059934 0.191642
0.532026 0.020492 0.134687
0.651548 0.066427 0.117867
0.515333 0.013274 0.154762
0.523913 0.059640 0.119684
0.514902 0.029973 0.149676
0.612695 0.073399 0.164841
0.640096 -0.002633 0.135075
0.561753 -0.030081 0.194674
0.513045 0.062195 0.140405
0.614304 0.026653 0.167672
0.597283 0.041939 0.178870
0.611167 0.002396 0.147242
0.554723 0.009503 0.183763
0.519652 0.019924 0.169419
0.534252 0.071473 0.133118
0.662719 0.021504 0.130864
0.625707 -0.037742 0.149597
0.622184 0.043358 0.154392
0.604015 0.064492 0.161249
0.640737 0.046689 0.146574
0.652747 0.027108 0.153641
0.579629 0.023085 0.170111
0.570600 -0.048107 0.145901
0.618148 0.052589 0.175145
0.516275 0.049036 0.139255
0.591331 -0.040538 0.140804
0.568624 -0.063479 0.175274
0.599844 -0.015051 0.185409
0.561795 -0.076005 0.177470
0.673423 0.043681 0.095966
0.541521 0.068862 0.118906
0.627261 0.095883 0.159144
0.628149 0.065043 0.167561
0.640590 -0.024129 0.156774
0.621800 0.078499 0.148059
0.636073 0.114285 0.146611
0.660250 0.006453 0.140734
0.568676 -0.017690 0.149487
0.654217 0.042398 0.094635
0.595836 -0.037831 0.178200
0.648993 0.043463 0.136780
0.522379 0.044771 0.161220
0.659079 0.046622 0.144090
0.611970 -0.014957 0.142769
0.632589 0.056974 0.139343
0.635515 0.107548 0.131018
0.520056 0.067074 0.152513
0.527505 0.009914 0.173477
0.541818 -0.027398 0.179629
0.644927 0.085845 0.114338
0.653162 0.026803 0.124610
0.551482 0.011142 0.169221
0.656501 0.090050 0.118698
0.596176 0.019999 0.190585
0.648192 -0.009365 0.152780
0.633461 0.038328 0.153161
0.546332 0.083026 0.139259
0.594293 -0.004704 0.183355
0.615715 0.031251 0.156776
0.510180 0.003901 0.145350
0.611692 0.046650 0.160900
0.621608 0.095704 0.145931
0.662888 0.051851 0.092384
0.663836 0.052900 0.113174
0.585255 -0.026693 0.184915
0.596773 0.035754 0.158963
0.524956 0.056198 0.142881
0.609528 -0.029626 0.177701
0.627437 0.083204 0.169698
0.569510 -0.064717 0.163418
0.629993 -0.020206 0.159324
0.521249 0.002381 0.149329
0.617148 0.060037 0.151752
0.661868 0.073048 0.102405
0.625811 0.039700 0.134760
0.646618 0.070087 0.141251
0.648332 0.005157 0.155212
0.659405 0.033346 0.145966
0.665864 0.034142 0.109838
