ply
format ascii 1.0
element vertex 256
property float x
property float y
property float z
end_header
0.628141 0.006083 0.176676
0.523423 0.038996 0.136754
0.649571 0.110296 0.150490
0.578892 -0.088675 0.175562
0.679660 0.036387 0.104450
0.537368 -0.022480 0.188653
0.633533 -0.058993 0.166722
0.631640 0.065713 0.189116
0.593256 -0.032636 0.207148
0.683762 0.013298 0.159052
0.562695 0.072847 0.137346
0.649034 0.058090 0.141324
0.578062 0.000646 0.174615
0.555161 -0.064666 0.207725
0.537836 -0.004027 0.146336
0.657140 -0.021914 0.160466
0.593289 -0.045447 0.157819
0.546876 0.029258 0.169807
0.599924 0.021815 0.201431
0.604609 -0.067785 0.194612
0.667807 0.083144 0.120350
0.652495 0.036630 0.172091
0.633562 -0.029705 0.189433
0.613313 0.040654 0.170975
0.564600 -0.045017 0.180156
0.617787 -0.019997 0.155995
0.682078 0.052991 0.134115
0.651498 0.011100 0.150072
0.540059 0.058977 0.157110
0.650433 0.082267 0.167851
0.521648 0.008702 0.174311
0.576528 -0.005248 0.205698
0.615256 -0.005384 0.203328
0.553187 0.043372 0.135849
0.604055 -0.023254 0.181630
0.679921 0.023934 0.130442
0.656152 0.008357 0.178086
0.561021 -0.035577 0.206102
0.550693 0.000952 0.178565
0.579051 -0.082313 0.202166
0.602529 0.015885 0.174786
0.563163 -0.068557 0.166545
0.677221 0.039396 0.158285
0.574732 -0.025113 0.165467
0.634336 0.034373 0.152630
0.595859 -0.071942 0.155853
0.622562 0.037692 0.195572
0.628134 0.061506 0.163991
0.636357 -0.036394 0.149437
0.578706 -0.054906 0.205936
0.541929 0.019034 0.137266
0.518960 0.019757 0.151926
0.667872 0.056878 0.114074
0.614170 -0.075639 0.173212
0.652875 -0.040365 0.178559
0.544203 -0.058028 0.178194
0.530228 -0.022846 0.159216
0.642838 -0.007837 0.192546
0.657266 0.033892 0.145676
0.661472 0.078455 0.142599
0.564413 -0.015601 0.188432
0.671685 -0.005196 0.167614
0.541934 0.062960 0.132152
0.627438 -0.051721 0.190345
0.639750 -0.007894 0.162239
0.529411 0.039429 0.160249
0.636966 0.025034 0.184078
0.634931 0.094559 0.155889
0.550985 -0.019483 0.170053
0.669311 -0.000513 0.144959
0.580415 -0.067001 0.179734
0.548596 0.010802 0.157611
0.659432 0.054374 0.159687
0.612745 -0.037001 0.200728
0.598661 -0.014711 0.162115
0.631360 0.047207 0.179797
0.664804 0.019418 0.163064
0.595981 -0.010619 0.207847
0.583149 0.020568 0.178080
0.631224 0.080092 0.173397
0.690165 0.028126 0.147085
0.618233 0.014511 0.199597
0.652344 0.071827 0.126346
0.638087 0.018439 0.163461
0.626501 -0.012515 0.182906
0.583259 0.011851 0.199557
0.603531 0.032677 0.185824
0.529966 -0.008408 0.176425
0.520720 -0.002150 0.154424
0.688867 0.038276 0.122018
0.640052 -0.027861 0.165750
0.598381 -0.047561 0.194898
0.611925 -0.037586 0.153869
0.575709 -0.047701 0.163034
0.670468 0.038694 0.120249
0.552497 0.043742 0.154193
0.574416 -0.023491 0.208752
0.550335 -0.034615 0.184641
0.521486 0.026200 0.169708
0.647562 0.101927 0.166365
0.665473 0.059397 0.132354
0.561043 0.057219 0.145848
0.537541 0.024502 0.154615
0.612233 -0.004402 0.167438
0.644583 0.068291 0.177191
0.601857 0.006305 0.189557
0.666796 0.016401 0.141084
0.546664 0.071753 0.146345
0.569880 -0.031823 0.190087
0.550075 -0.052219 0.193195
0.545265 -0.018455 0.152620
0.588214 -0.068160 0.200106
0.615769 0.056984 0.174909
0.644170 0.049999 0.165697
0.651871 -0.012141 0.173240
0.536852 0.047908 0.141618
0.538490 0.016832 0.177459
0.670406 0.042100 0.139652
0.654226 -0.005047 0.152864
0.622840 0.020536 0.170696
0.581019 -0.067756 0.161693
0.591890 0.002707 0.165929
0.676149 0.067800 0.123155
0.528461 0.010270 0.140360
0.652744 0.094425 0.152561
0.619670 0.053244 0.190184
0.600245 -0.077331 0.182305
0.544514 -0.006099 0.162965
0.624073 -0.065490 0.182663
0.673046 0.056783 0.146818
0.618820 0.025537 0.185351
0.650592 -0.036999 0.157926
0.564765 -0.058894 0.188050
0.598519 -0.031212 0.162473
0.629076 -0.017078 0.197604
0.632033 0.035047 0.167718
0.561997 -0.026627 0.178202
0.648414 0.004493 0.163564
0.615008 0.001494 0.182554
0.603918 -0.066169 0.167560
0.542129 0.033875 0.140312
0.537500 -0.025649 0.174032
0.639950 0.047393 0.147877
0.642095 0.000240 0.180009
0.681133 0.013607 0.144106
0.608641 -0.065137 0.152548
0.641158 0.091084 0.175353
0.642888 0.082289 0.153429
0.654321 0.068696 0.151117
0.646578 0.025057 0.150631
0.550707 -0.013034 0.183287
0.674188 0.029797 0.147586
0.669039 0.032256 0.168741
0.554453 0.066787 0.125678
0.649074 -0.029686 0.187749
0.561954 -0.010780 0.174024
0.654194 0.021970 0.173429
0.627416 0.000236 0.197752
0.564982 -0.049466 0.204745
0.576583 -0.037343 0.173102
0.556131 -0.024705 0.197970
0.596088 0.009079 0.206786
0.679999 0.047132 0.113957
0.525271 0.025105 0.138870
0.595459 0.019385 0.188255
0.573456 0.005085 0.187174
0.672866 0.008763 0.168434
0.614323 -0.058587 0.189981
0.673862 0.025415 0.117931
0.602205 -0.022812 0.203093
0.623296 0.048477 0.165308
0.640962 0.069903 0.163886
0.639756 -0.015770 0.181211
0.586324 -0.019537 0.203130
0.671958 0.074724 0.134264
0.542132 0.043118 0.163759
0.622952 -0.067650 0.166318
0.565583 -0.072732 0.204151
0.547848 0.005453 0.145091
0.530365 -0.002697 0.164109
0.538249 0.043606 0.128844
0.684842 0.039779 0.135169
0.663661 0.041556 0.158683
0.529080 0.013854 0.158691
0.577398 -0.041760 0.207663
0.525738 0.045827 0.148657
0.632993 0.004913 0.164440
0.656629 0.046759 0.148796
0.659574 0.083686 0.130545
0.567829 -0.002978 0.195841
0.533158 0.004455 0.178899
0.546847 0.056247 0.142761
0.644386 -0.044478 0.166603
0.610475 0.043481 0.184418
0.590639 -0.059380 0.159745
0.660344 0.045877 0.132543
0.641179 0.016220 0.175706
0.529791 0.032820 0.148031
0.610953 -0.050168 0.155802
0.624289 0.036588 0.180144
0.588145 -0.074630 0.189142
0.614624 -0.023714 0.200505
0.582244 -0.087659 0.191086
0.638631 0.057483 0.181390
0.610477 0.014435 0.185086
0.640532 0.036256 0.177014
0.659480 -0.000302 0.167375
0.648625 0.031803 0.161087
0.555295 0.053855 0.129175
0.637778 0.076738 0.183539
0.663913 0.070991 0.121646
0.657641 -0.029627 0.174483
0.668167 0.067852 0.143876
0.609315 0.026137 0.173135
0.626780 -0.005695 0.162864
0.664865 -0.010803 0.155439
0.625266 0.010777 0.187670
0.586017 -0.029198 0.162817
0.612939 -0.046803 0.193363
0.534642 0.029320 0.170439
0.624861 0.069942 0.175674
0.629271 -0.022958 0.158671
0.531530 0.051307 0.161146
0.541414 -0.004893 0.183673
0.558212 -0.040807 0.191420
0.565355 -0.001727 0.181112
0.607792 0.010954 0.205000
0.664300 -0.014158 0.170578
0.668810 0.028375 0.130704
0.676839 0.004186 0.152987
0.674804 0.021775 0.156930
0.557737 0.068600 0.149538
0.608742 0.026443 0.194831
0.608380 -0.013876 0.197989
0.632410 0.053274 0.190643
0.647435 0.057149 0.153078
0.526572 -0.012553 0.154545
0.651883 0.072715 0.138669
0.601094 -0.036523 0.199288
0.635577 0.084323 0.162388
0.537763 0.040596 0.152120
0.653929 0.059756 0.130545
0.625918 -0.037501 0.193579
0.677634 0.054349 0.123416
0.646280 0.036827 0.148268
0.679619 0.043527 0.146572
0.589849 -0.075885 0.177377
0.629992 0.073972 0.163626
0.646624 -0.026571 0.176343
0.691122 0.030677 0.131891
0.661696 0.058599 0.147095
0.549074 -0.003603 0.152790
0.581945 0.011036 0.171942
0.540664 -0.014671 0.170447
0.575721 -0.078421 0.171739
0.601452 -0.001988 0.202811
