ply
format ascii 1.0
element vertex 256
property float x
property float y
property float z
end_header
0.618875 0.007994 0.216916
0.538663 0.039841 0.146370
0.650403 0.101156 0.171845
0.556993 -0.079020 0.214678
0.668504 0.015447 0.139376
0.524814 -0.006275 0.208938
0.615967 -0.057730 0.211000
0.628261 0.069016 0.218915
0.575601 -0.023470 0.244882
0.673185 0.014467 0.197729
0.582036 0.067436 0.153137
0.656983 0.052032 0.171365
0.530554 -0.044898 0.237061
0.569292 0.020262 0.225833
0.551137 0.001641 0.170109
0.585998 -0.025782 0.201153
0.646215 -0.023251 0.202245
0.524612 0.031486 0.186426
0.600802 0.041938 0.220567
0.583133 -0.060600 0.235607
0.630438 0.032674 0.191085
0.617642 -0.027261 0.232033
0.547255 -0.034313 0.204897
0.595009 0.005089 0.243815
0.561571 0.045316 0.171214
0.649802 0.078369 0.195682
0.577921 -0.060805 0.198510
0.673203 0.079391 0.167738
0.681913 0.022024 0.166673
0.546415 -0.015658 0.238647
0.618250 -0.032456 0.193153
0.651839 0.048759 0.206315
0.659155 0.044948 0.141509
0.590710 0.005235 0.205809
0.649335 0.010974 0.216047
0.525753 -0.011704 0.179070
0.650490 -0.000763 0.183372
0.561638 -0.009085 0.202193
0.545470 0.016855 0.199089
0.530552 0.015585 0.156714
0.535631 0.054186 0.171266
0.555072 -0.070966 0.240750
0.615949 0.054394 0.199605
0.653572 0.026313 0.178800
0.633357 0.032086 0.219382
0.558238 -0.043577 0.243054
0.559910 0.055021 0.141589
0.639030 -0.039868 0.220623
0.553933 0.025129 0.159120
0.593814 -0.071106 0.215943
0.588915 -0.016315 0.223336
0.664125 -0.006544 0.205301
0.559603 0.069145 0.161506
0.629548 -0.006702 0.235129
0.554035 -0.059102 0.198563
0.564337 0.003153 0.241747
0.545809 0.000027 0.218025
0.590604 0.029054 0.237255
0.526981 -0.043821 0.211546
0.563919 -0.029527 0.220521
0.613923 -0.013330 0.205699
0.596256 -0.046661 0.197002
0.627140 0.074289 0.194042
0.662093 0.011227 0.162083
0.608362 -0.048124 0.233316
0.672766 0.037673 0.183800
0.633696 0.010446 0.193687
0.621161 0.049206 0.227076
0.585533 0.030956 0.208854
0.640231 0.051811 0.185558
0.535472 -0.027339 0.223618
0.548801 0.036329 0.186640
0.636123 -0.007855 0.213984
0.636348 0.085770 0.178141
0.559477 -0.058379 0.220676
0.521073 0.010643 0.181907
0.654242 0.028142 0.200286
0.672095 0.041047 0.160666
0.599532 0.015763 0.222952
0.664821 0.068444 0.184049
0.615431 0.008416 0.240084
0.594859 -0.030874 0.241090
0.653441 0.032069 0.157329
0.536846 0.033064 0.167783
0.566075 -0.042435 0.198644
0.535897 0.000343 0.192279
0.574842 0.047959 0.156355
0.569086 0.009312 0.209106
0.670866 0.005545 0.179021
0.646432 0.097024 0.190815
0.616699 0.037947 0.211093
0.544361 -0.044659 0.224195
0.626948 -0.027914 0.209244
0.608343 -0.012368 0.238789
0.579877 -0.039743 0.234113
0.639679 0.064998 0.204207
0.661692 0.066853 0.160875
0.647137 -0.000434 0.201443
0.580086 0.015826 0.244101
0.657250 0.046074 0.189170
0.580309 -0.005540 0.244684
0.538126 -0.016048 0.201427
0.604594 -0.002796 0.219208
0.611714 0.029000 0.226737
0.530594 0.000045 0.166393
0.522350 0.010590 0.199801
0.550983 -0.017028 0.219098
0.549919 0.015150 0.181695
0.546240 0.054272 0.153525
0.632429 0.017079 0.210054
0.557770 0.038319 0.148394
0.635564 0.043100 0.204028
0.542866 -0.013665 0.180320
0.522021 0.023443 0.170460
0.667992 0.030898 0.146844
0.572503 -0.067968 0.214960
0.636601 -0.036894 0.198467
0.566342 -0.058366 0.239095
0.659006 0.013367 0.188495
0.542980 -0.059526 0.240606
0.652779 0.085463 0.180719
0.638168 0.083798 0.206136
0.604433 -0.028963 0.201435
0.651876 -0.010312 0.216710
0.603944 -0.061790 0.225993
0.551125 0.058323 0.171278
0.679337 0.018944 0.151152
0.556119 0.008553 0.229099
0.588543 -0.009516 0.199979
0.603509 0.028945 0.210153
0.669035 0.022414 0.178208
0.673509 0.063160 0.170910
0.652571 0.061357 0.191226
0.570426 -0.024008 0.203369
0.576323 0.057787 0.142164
0.633087 -0.029471 0.232235
0.554080 -0.027507 0.244966
0.619600 0.026885 0.200690
0.613733 0.057296 0.216199
0.625181 0.002338 0.203589
0.547801 0.043614 0.164987
0.631140 0.053072 0.214566
0.583842 0.019907 0.219092
0.660703 0.008134 0.204226
0.606029 0.021001 0.238182
0.544505 0.013318 0.161486
0.592203 -0.061359 0.194257
0.616617 -0.001992 0.227987
0.647353 0.034758 0.211655
0.632928 0.004926 0.220807
0.665576 0.025956 0.163242
0.681275 0.017679 0.185751
0.568404 0.059658 0.168626
0.666350 0.027000 0.191960
0.628733 -0.044872 0.211456
0.620000 0.024372 0.215345
0.594189 -0.007606 0.236674
0.645971 0.036150 0.186411
0.661042 0.049915 0.157519
0.640584 0.073750 0.185474
0.551586 0.031193 0.173362
0.670105 0.000807 0.193980
0.566605 0.067349 0.149001
0.562253 0.054977 0.156208
0.657474 -0.010500 0.191330
0.627983 -0.042740 0.230264
0.640741 0.021722 0.199000
0.634784 -0.016708 0.226011
0.651535 0.064269 0.176345
0.536231 0.027459 0.193467
0.535543 0.039261 0.180432
0.667292 0.054929 0.180409
0.589546 0.015386 0.232773
0.594524 -0.053146 0.231721
0.660668 0.038697 0.173442
0.609950 0.042059 0.231412
0.536883 0.000928 0.206199
0.554270 0.009381 0.212026
0.583064 -0.038446 0.196185
0.527535 0.029126 0.157404
0.658660 0.017622 0.150244
0.642175 0.021522 0.185216
0.532880 -0.015468 0.217021
0.608262 0.008244 0.208065
0.619278 0.066331 0.205421
0.604367 -0.064871 0.209763
0.521881 -0.004007 0.195785
0.632737 -0.015813 0.203487
0.627751 0.060858 0.196048
0.558206 -0.011753 0.243734
0.540947 0.023074 0.153066
0.545656 -0.036408 0.239941
0.638817 0.086436 0.193201
0.565917 0.039055 0.159739
0.628107 0.075819 0.207833
0.522795 0.010873 0.167796
0.605976 0.043911 0.207299
0.662497 0.074202 0.172572
0.674819 0.011412 0.163657
0.646358 -0.024779 0.214962
0.536966 0.046768 0.158176
0.548564 -0.050088 0.205826
0.544606 -0.004840 0.232077
0.585725 -0.060727 0.208622
0.546710 -0.002674 0.186263
0.566579 -0.065488 0.228545
0.548286 -0.034217 0.217586
0.558690 -0.077429 0.230421
0.547994 -0.021754 0.207027
0.621422 -0.016228 0.237218
0.592646 0.019158 0.210008
0.550292 0.046570 0.177018
0.524642 0.035825 0.168487
0.527552 -0.045961 0.223844
0.522978 0.020341 0.192045
0.578827 0.027966 0.227967
0.569795 -0.010573 0.239360
0.573568 -0.012198 0.200813
0.641561 -0.008097 0.193467
0.552520 0.017845 0.169934
0.645996 0.022251 0.210113
0.595703 0.017584 0.243916
0.615485 0.013764 0.227230
0.644160 0.009034 0.187398
0.630099 0.019429 0.221881
0.558981 -0.027225 0.206414
0.592045 -0.017788 0.243162
0.594472 -0.041083 0.234309
0.594169 0.033197 0.225944
0.607279 -0.017761 0.196487
0.662490 -0.003826 0.182485
0.662849 0.037705 0.196540
0.522166 -0.000544 0.175873
0.645282 0.090256 0.170365
0.669787 0.044080 0.147290
0.672791 0.034830 0.172008
0.657918 0.019701 0.208173
0.540742 -0.004586 0.172659
0.549636 0.047105 0.144500
0.653049 -0.013548 0.204078
0.573335 0.069788 0.161061
0.610104 0.017589 0.215392
0.624620 0.048152 0.205058
0.673419 0.069914 0.160422
0.639503 -0.033206 0.209999
0.564789 0.013611 0.235482
0.576817 0.022528 0.209931
0.643960 -0.000051 0.218034
0.632405 -0.026824 0.220473
0.660304 0.034144 0.184458
0.583633 -0.028909 0.238232
0.566699 -0.035749 0.245174
0.638289 0.073217 0.213007
0.551088 -0.025719 0.226947
0.616083 -0.042842 0.198063
0.548675 0.031039 0.149427
