ply
format ascii 1.0
element vertex 256
property float x
property float y
property float z
end_header
0.628863 -0.014473 0.206206
0.518911 0.012849 0.171417
0.584377 -0.111543 0.208244
0.643710 0.086777 0.175844
0.681990 0.014294 0.140702
0.540156 -0.047294 0.221853
0.637283 -0.079418 0.197584
0.629901 0.045357 0.219388
0.596571 -0.054147 0.238266
0.677399 0.017214 0.198454
0.554704 0.050320 0.169602
0.579085 -0.022418 0.205335
0.666094 -0.022794 0.175139
0.560136 -0.087994 0.240366
0.541170 -0.027825 0.179573
0.658304 0.044126 0.166800
0.596244 -0.068082 0.189243
0.524195 -0.005959 0.209733
0.600404 0.000419 0.231202
0.655113 -0.046818 0.212955
0.634698 0.022066 0.187876
0.609402 -0.088975 0.226273
0.630805 -0.043002 0.182404
0.567934 -0.068507 0.211853
0.548555 0.020314 0.186828
0.648892 0.061944 0.196920
0.626578 -0.042822 0.227505
0.661514 -0.009807 0.205974
0.687967 0.004154 0.171112
0.607057 0.021151 0.207912
0.578475 -0.027657 0.236566
0.671753 0.071164 0.170332
0.600166 -0.037027 0.192742
0.684157 0.034179 0.176624
0.550535 -0.016715 0.209755
0.657597 0.006628 0.181442
0.564508 -0.058697 0.237974
0.639513 0.010386 0.212274
0.602790 -0.006064 0.204628
0.523850 0.021003 0.198692
0.584757 -0.104566 0.234691
0.567487 -0.092440 0.199121
0.655735 0.033067 0.200876
0.525207 -0.038054 0.198542
0.605179 -0.025356 0.237252
0.653046 -0.056820 0.187941
0.600089 -0.094457 0.187812
0.532713 0.034204 0.163791
0.518700 -0.012657 0.178662
0.576856 -0.048515 0.196833
0.626405 -0.069931 0.222123
0.583126 -0.077129 0.237859
0.679750 0.046304 0.153718
0.541584 -0.003092 0.175018
0.645741 -0.024532 0.190200
0.624103 -0.009502 0.229959
0.618909 -0.096843 0.204853
0.605987 -0.046712 0.214626
0.681334 -0.010333 0.191681
0.548267 -0.082591 0.210935
0.669036 -0.033482 0.198374
0.622320 0.041238 0.196881
0.644552 -0.027279 0.222063
0.538017 0.043838 0.185593
0.619990 0.013767 0.226819
0.565873 -0.037537 0.218060
0.673702 0.019273 0.161003
0.545218 0.004937 0.202809
0.636366 -0.000807 0.190345
0.631207 0.070987 0.185090
0.627468 -0.036172 0.203012
0.547777 -0.038479 0.203254
0.667378 0.047127 0.186523
0.584904 -0.089730 0.211901
0.532390 -0.026446 0.215276
0.656542 0.027592 0.179526
0.614382 -0.059405 0.184723
0.657354 0.009931 0.201737
0.527642 0.002144 0.189220
0.583244 -0.002194 0.208247
0.608354 -0.068860 0.231221
0.553540 0.029342 0.169578
0.630610 0.059179 0.204833
0.584221 -0.010395 0.229905
0.551737 -0.058174 0.209794
0.632774 0.028636 0.210252
0.547442 -0.013332 0.190415
0.537432 0.015841 0.167674
0.632806 -0.064498 0.185484
0.607177 -0.014670 0.220681
0.675036 0.017083 0.179552
0.528258 -0.018893 0.197069
0.578907 -0.071078 0.194882
0.649389 0.044930 0.182905
0.692280 0.017540 0.159261
0.618425 0.006871 0.209261
0.577335 -0.045907 0.240069
0.617663 0.030383 0.219990
0.640230 0.044086 0.202903
0.658603 0.060131 0.175715
0.644064 0.080851 0.192899
0.655796 -0.039468 0.184246
0.613313 -0.025940 0.197544
0.525772 0.027358 0.179116
0.661074 -0.010375 0.186775
0.648966 -0.062849 0.215727
0.677981 0.029997 0.146863
0.573102 -0.055093 0.221544
0.677224 -0.009778 0.172625
0.645051 -0.011139 0.211096
0.597393 0.006762 0.215552
0.554144 -0.076152 0.225675
0.522629 -0.030970 0.183198
0.611271 -0.045424 0.234595
0.628483 -0.086001 0.213864
0.542530 -0.045058 0.188455
0.674979 0.054250 0.173067
0.593161 -0.090030 0.232123
0.648515 -0.036366 0.201700
0.620838 0.022239 0.197191
0.585180 -0.090872 0.193872
0.592614 -0.019880 0.196312
0.687728 0.009693 0.186859
0.605271 -0.099008 0.214277
0.569042 -0.082213 0.220367
0.590678 -0.039206 0.233948
0.536757 0.029444 0.194296
0.671495 0.031290 0.193674
0.678069 0.004863 0.155627
0.648540 0.071716 0.179851
0.600852 -0.053502 0.193468
0.666974 0.033826 0.157406
0.546942 0.041528 0.159180
0.630214 -0.026349 0.228219
0.673678 0.003680 0.189336
0.535673 -0.047012 0.206952
0.534081 0.015771 0.185759
0.566967 -0.052453 0.207684
0.533198 -0.015729 0.174372
0.619366 -0.043172 0.192241
0.662656 0.063517 0.161041
0.653677 -0.063595 0.201420
0.608085 -0.088023 0.199213
0.640376 -0.044976 0.221908
0.646515 0.023031 0.207193
0.631037 0.000618 0.204240
0.612447 -0.087108 0.184084
0.639618 0.071076 0.204036
0.639995 0.059137 0.183583
0.550680 0.036252 0.186099
0.661038 0.020916 0.191885
0.669529 0.035050 0.177695
0.658470 -0.023929 0.203545
0.565083 -0.025213 0.210248
0.591463 -0.021117 0.239819
0.645308 0.057170 0.210180
0.642706 0.011229 0.182465
0.642224 -0.048033 0.195783
0.543243 0.003314 0.188529
0.569126 -0.072401 0.236840
0.670975 0.004744 0.173152
0.579468 -0.060458 0.204696
0.539317 0.046433 0.171444
0.558919 -0.048270 0.229708
0.540941 0.032254 0.175945
0.558691 -0.060544 0.222166
0.529859 0.003746 0.169033
0.627050 0.009909 0.191974
0.546456 -0.031503 0.215637
0.620243 -0.025004 0.210469
0.608427 -0.010023 0.236545
0.670924 0.005300 0.203146
0.538164 -0.008046 0.210870
0.530577 0.005332 0.202685
0.633580 -0.017637 0.192274
0.516794 -0.011237 0.194122
0.574519 -0.017921 0.217887
0.680551 0.034318 0.163025
0.645148 0.031257 0.188730
0.614575 0.034138 0.205823
0.672708 -0.016247 0.201134
0.670474 0.015112 0.148274
0.617560 -0.006809 0.204689
0.611448 -0.002082 0.217331
0.554250 -0.044311 0.215584
0.627140 -0.088593 0.197598
0.570872 -0.095616 0.236750
0.536613 -0.033001 0.193162
0.616119 -0.057694 0.231530
0.659758 -0.043387 0.198926
0.683852 0.022314 0.170146
0.566146 -0.033947 0.230968
0.607335 0.013062 0.221954
0.648025 -0.007624 0.185534
0.672855 -0.022514 0.186691
0.617624 -0.029353 0.231411
0.581199 -0.064027 0.239322
0.626303 0.017219 0.215672
0.592914 -0.009420 0.213715
0.656750 0.044534 0.193872
0.646151 0.001864 0.204793
0.689516 0.023031 0.146891
0.671293 0.043216 0.166733
0.634368 0.015862 0.201648
0.630209 0.032488 0.222570
0.632281 0.049613 0.194271
0.643228 -0.011360 0.198281
0.639843 -0.034275 0.211030
0.594330 -0.082080 0.191534
0.664641 -0.007239 0.173868
0.526358 0.021972 0.165367
0.548820 0.017752 0.173295
0.520999 0.016757 0.184479
0.549764 -0.030664 0.193313
0.614076 -0.071972 0.186955
0.593193 -0.096748 0.221309
0.516260 0.001540 0.194852
0.587987 -0.110003 0.223667
0.629154 -0.057710 0.224115
0.522262 -0.022744 0.207511
0.540758 0.017142 0.196399
0.532187 -0.039183 0.216421
0.658770 -0.028307 0.189014
0.618552 -0.079420 0.221233
0.625980 -0.009672 0.217152
0.588275 -0.052099 0.194034
0.531514 -0.048150 0.192901
0.639242 0.038422 0.213749
0.624511 0.048891 0.207033
0.519102 0.002065 0.177017
0.685239 -0.003913 0.182240
0.549863 0.048560 0.180442
0.677583 0.024516 0.136218
0.666489 0.018245 0.203186
0.682702 0.025514 0.184668
0.542681 0.025028 0.162208
0.605049 0.009863 0.204742
0.670632 0.028750 0.167487
0.630120 -0.021433 0.217457
0.670465 -0.005633 0.196496
0.595722 -0.012760 0.229022
0.604432 -0.057824 0.230329
0.633444 0.061968 0.192907
0.614520 -0.002857 0.229574
0.628665 0.030800 0.197288
0.594719 -0.098190 0.209541
0.656303 -0.014360 0.196503
0.664887 0.053447 0.166640
0.582391 -0.011914 0.202349
0.526990 -0.019100 0.185741
0.580624 -0.101550 0.204263
0.578378 -0.067834 0.216351
0.576924 -0.083408 0.196221
0.545668 -0.013724 0.179251
0.649813 0.012390 0.193677
0.658407 0.000851 0.208366
