ply
format ascii 1.0
element vertex 256
property float x
property float y
property float z
end_header
0.626100 0.145535 0.175311
0.514998 0.179118 0.150219
0.577608 0.050383 0.174604
0.644476 0.247942 0.152925
0.676733 0.176580 0.108970
0.537289 0.115357 0.195126
0.631048 0.080977 0.162241
0.631833 0.203110 0.192794
0.594305 0.105244 0.207098
0.675540 0.175514 0.166699
0.551239 0.216137 0.148056
0.576073 0.139655 0.177426
0.661032 0.137831 0.141567
0.556633 0.072815 0.209689
0.536253 0.137433 0.154149
0.655539 0.205611 0.138514
0.590083 0.094445 0.157469
0.522340 0.157963 0.186719
0.600063 0.159950 0.203073
0.651289 0.111806 0.178266
0.632618 0.183010 0.159229
0.604755 0.070755 0.192173
0.625183 0.118505 0.149762
0.563355 0.093732 0.181914
0.545879 0.185136 0.163713
0.649872 0.222245 0.172481
0.623996 0.116016 0.194977
0.658846 0.148749 0.173337
0.683952 0.163979 0.138165
0.606039 0.181819 0.180649
0.577323 0.132490 0.208254
0.670940 0.231544 0.142905
0.682183 0.194819 0.141399
0.595598 0.125037 0.162545
0.548133 0.146219 0.184211
0.654271 0.167047 0.150282
0.562124 0.102006 0.208763
0.638255 0.169367 0.182401
0.600376 0.155061 0.176057
0.522183 0.185368 0.177497
0.580064 0.055662 0.201333
0.660084 0.197776 0.164070
0.561005 0.070682 0.167841
0.521202 0.126634 0.173544
0.604089 0.133675 0.207219
0.647113 0.103489 0.152900
0.592656 0.068080 0.154192
0.528567 0.200744 0.142947
0.572130 0.114255 0.167549
0.514502 0.150245 0.162834
0.622266 0.089328 0.188002
0.579861 0.082889 0.206247
0.628267 0.208081 0.168283
0.673068 0.205718 0.120455
0.537416 0.162372 0.151097
0.641469 0.135894 0.157615
0.623163 0.149188 0.199594
0.612450 0.063877 0.169711
0.602437 0.113770 0.183350
0.677789 0.148321 0.158008
0.543072 0.080529 0.181533
0.666392 0.127725 0.164451
0.642233 0.131140 0.189242
0.535720 0.208831 0.164849
0.619887 0.172776 0.198133
0.632642 0.227308 0.154636
0.563087 0.124305 0.190109
0.543288 0.168459 0.178998
0.668978 0.179612 0.129652
0.633298 0.159965 0.159971
0.623537 0.124153 0.170925
0.544010 0.125030 0.176606
0.579341 0.071885 0.179519
0.671088 0.211766 0.151992
0.530008 0.136862 0.190403
0.653709 0.177168 0.170545
0.608244 0.102658 0.152228
0.642880 0.200317 0.153654
0.581306 0.159473 0.181252
0.524877 0.167133 0.166544
0.604929 0.090544 0.198380
0.549683 0.195224 0.146752
0.629726 0.186948 0.178545
0.583367 0.149894 0.202258
0.547529 0.104815 0.181638
0.663357 0.185527 0.149574
0.543871 0.150949 0.165383
0.533226 0.182101 0.145239
0.626435 0.096795 0.151399
0.605443 0.145294 0.191220
0.573047 0.091795 0.164109
0.688226 0.177991 0.127046
0.616842 0.167044 0.180361
0.575616 0.114116 0.210725
0.652771 0.123176 0.151108
0.618365 0.190788 0.192248
0.639034 0.239054 0.167832
0.609514 0.135265 0.167078
0.522705 0.192987 0.158288
0.644290 0.206480 0.180553
0.657306 0.149566 0.154344
0.634086 0.222675 0.180343
0.667488 0.217437 0.132894
0.615490 0.198112 0.174962
0.656919 0.221046 0.146544
0.644639 0.095892 0.180491
0.681021 0.176848 0.149430
0.569759 0.106283 0.192015
0.672635 0.150479 0.139324
0.642672 0.147781 0.179380
0.596294 0.167380 0.188080
0.550201 0.085787 0.196188
0.521793 0.156282 0.147743
0.609097 0.113586 0.202944
0.623075 0.073739 0.178669
0.537476 0.119627 0.161841
0.588911 0.069983 0.199064
0.663438 0.163473 0.166456
0.679137 0.190193 0.118493
0.517887 0.143099 0.180433
0.644339 0.123135 0.168101
0.578359 0.071869 0.161479
0.589067 0.142213 0.167654
0.517886 0.134780 0.158883
0.648150 0.232037 0.155986
0.564427 0.079482 0.189503
0.599391 0.061670 0.179912
0.588802 0.120650 0.204105
0.534868 0.193907 0.172664
0.643872 0.189727 0.170724
0.595603 0.108535 0.162231
0.674943 0.190656 0.162143
0.667156 0.165191 0.141265
0.666607 0.194212 0.135233
0.542531 0.208165 0.137723
0.647436 0.160336 0.171312
0.628395 0.132253 0.196424
0.640826 0.215803 0.161223
0.673221 0.166266 0.123404
0.648402 0.182712 0.151069
0.531819 0.116769 0.180623
0.531284 0.180871 0.163487
0.562819 0.110045 0.178809
0.614431 0.118173 0.160342
0.648344 0.095859 0.165871
0.601673 0.073460 0.165376
0.637279 0.113669 0.188315
0.657107 0.211689 0.159272
0.685622 0.160775 0.155082
0.616588 0.183034 0.170148
0.605049 0.075150 0.150063
0.628801 0.160621 0.174109
0.548240 0.201057 0.163863
0.654989 0.134935 0.170227
0.562321 0.137118 0.183125
0.590776 0.138288 0.210983
0.540271 0.167831 0.164822
0.566047 0.088227 0.206490
0.574732 0.101746 0.174480
0.535971 0.212345 0.150841
0.556461 0.113147 0.201546
0.537672 0.197877 0.154264
0.637239 0.112190 0.161989
0.555197 0.101384 0.193320
0.525556 0.170046 0.146394
0.511980 0.164067 0.160039
0.624631 0.170941 0.162919
0.543844 0.131248 0.189453
0.617327 0.135109 0.179523
0.607955 0.148880 0.207209
0.536251 0.155269 0.186730
0.629729 0.143068 0.160920
0.528905 0.169376 0.179917
0.676383 0.206559 0.134389
0.572560 0.143532 0.190513
0.629878 0.182886 0.191959
0.514625 0.165103 0.175709
0.672085 0.163878 0.155605
0.670508 0.197327 0.150468
0.669432 0.142120 0.167517
0.615080 0.153779 0.174980
0.637605 0.171223 0.153346
0.626677 0.193576 0.166911
0.667019 0.185284 0.113219
0.610032 0.157887 0.188343
0.620534 0.072231 0.162410
0.551042 0.118168 0.188070
0.566757 0.065012 0.204885
0.532420 0.131577 0.167685
0.613182 0.101350 0.198819
0.655043 0.115836 0.164158
0.644283 0.152974 0.153982
0.564381 0.127063 0.203159
0.606911 0.172863 0.194142
0.668445 0.136944 0.152680
0.615927 0.129559 0.200297
0.578617 0.095939 0.208625
0.590992 0.151537 0.185591
0.638436 0.236126 0.146729
0.654203 0.195118 0.146276
0.663099 0.181922 0.162130
0.638175 0.195487 0.183965
0.632780 0.175833 0.172523
0.681691 0.182206 0.137411
0.640080 0.148554 0.166721
0.626757 0.210373 0.180932
0.523718 0.144470 0.152576
0.587711 0.080419 0.159043
0.636493 0.125045 0.178163
0.660285 0.153488 0.141503
0.522124 0.188521 0.144213
0.545049 0.183478 0.150062
0.545638 0.133390 0.167044
0.518163 0.182118 0.163305
0.607534 0.089998 0.153718
0.587922 0.063963 0.187890
0.582306 0.050805 0.189804
0.625679 0.101280 0.190528
0.538788 0.181440 0.173638
0.634938 0.227130 0.167220
0.529336 0.124094 0.190779
0.651223 0.136324 0.149898
0.665109 0.173450 0.173677
0.613959 0.080235 0.187092
0.674438 0.219708 0.143005
0.624170 0.149749 0.186699
0.583167 0.110400 0.163753
0.526668 0.116683 0.166862
0.524587 0.153276 0.169134
0.658913 0.160345 0.177173
0.664826 0.205958 0.130409
0.547219 0.213725 0.159104
0.659950 0.226951 0.136592
0.621238 0.200125 0.185348
0.638077 0.214450 0.188026
0.635391 0.199282 0.173016
0.538208 0.191559 0.139990
0.603339 0.170846 0.176970
0.624562 0.174752 0.185155
0.655383 0.188689 0.173354
0.627798 0.137836 0.186009
0.594667 0.147132 0.200437
0.667228 0.174030 0.152237
0.601447 0.101762 0.198427
0.613879 0.156221 0.200274
0.676333 0.188355 0.106950
0.651498 0.209583 0.149317
0.588592 0.063205 0.175979
0.678112 0.157758 0.146798
0.652866 0.145117 0.163923
0.527778 0.147485 0.186809
0.533869 0.149288 0.150538
0.667459 0.153140 0.163795
0.579632 0.150186 0.174854
0.574100 0.093701 0.185718
0.574041 0.060750 0.171501
