ply
format ascii 1.0
element vertex 256
property float x
property float y
property float z
end_header
0.637181 0.000769 0.214056
0.547596 0.012694 0.153952
0.659423 0.097960 0.171995
0.584617 -0.092086 0.209506
0.685793 0.016823 0.134719
0.564575 -0.019993 0.228470
0.602083 0.054158 0.154915
0.641093 -0.064753 0.206666
0.640255 0.062351 0.217858
0.692213 0.005615 0.192733
0.668157 0.046371 0.173032
0.559907 -0.029461 0.178291
0.609927 -0.042184 0.238741
0.592985 0.016948 0.209479
0.558123 -0.066175 0.237804
0.666594 -0.029029 0.202426
0.602829 -0.050025 0.192480
0.565481 0.044898 0.169347
0.549211 0.005183 0.193023
0.662457 0.030528 0.208120
0.594883 -0.002252 0.241886
0.643614 -0.030431 0.231224
0.623461 0.034250 0.203780
0.608742 -0.016460 0.203134
0.577203 0.026817 0.142130
0.658907 0.002794 0.185944
0.634453 -0.034860 0.190387
0.666419 0.064306 0.144495
0.591690 -0.071138 0.234433
0.569110 -0.047350 0.210090
0.660937 0.074533 0.195161
0.573366 -0.001837 0.166796
0.698394 0.020414 0.163619
0.613161 -0.078546 0.208462
0.545184 -0.022981 0.204896
0.576814 -0.007868 0.203514
0.616755 0.018666 0.228576
0.581116 -0.044122 0.239854
0.621170 -0.012803 0.237348
0.665949 0.001558 0.213579
0.682372 0.041534 0.148464
0.570944 -0.071706 0.198055
0.647122 0.030671 0.185823
0.685249 0.030863 0.187837
0.543846 -0.010080 0.166274
0.632881 0.039336 0.227789
0.567575 0.021665 0.184615
0.632452 -0.056491 0.229142
0.659583 -0.046476 0.220280
0.642757 0.057501 0.193392
0.673123 0.024288 0.164042
0.591049 0.034450 0.163819
0.677369 -0.013209 0.188013
0.583899 -0.029301 0.197190
0.543695 0.020784 0.175508
0.665915 0.050170 0.195770
0.579190 0.050955 0.152054
0.683533 0.003739 0.171736
0.650718 -0.012593 0.200403
0.646092 0.020418 0.220339
0.590192 -0.023262 0.235779
0.612358 0.006500 0.205988
0.551146 -0.060106 0.206971
0.582537 0.001354 0.223772
0.645096 0.083654 0.181007
0.569345 0.020472 0.162926
0.586500 -0.070359 0.213228
0.611900 -0.065171 0.230621
0.613013 -0.030361 0.218827
0.595849 -0.070072 0.191860
0.617896 -0.070431 0.189700
0.634385 -0.020765 0.210667
0.635794 0.018383 0.200138
0.666615 0.066233 0.164797
0.564461 -0.009640 0.183312
0.672639 0.017025 0.195725
0.652201 -0.043551 0.193811
0.564475 -0.025327 0.200758
0.592523 0.039431 0.142358
0.640720 0.042277 0.208988
0.680868 -0.009536 0.207092
0.563749 -0.040890 0.231487
0.629488 0.006400 0.236875
0.642629 0.075424 0.201736
0.682228 0.007927 0.151621
0.644197 -0.011187 0.233497
0.685876 0.038013 0.168875
0.629244 -0.073545 0.220798
0.539606 -0.010352 0.184936
0.586377 -0.042289 0.216489
0.555650 -0.035059 0.215126
0.559038 0.035134 0.154575
0.557647 -0.005144 0.154575
0.664731 0.047612 0.154644
0.667336 0.029748 0.182496
0.668323 0.029449 0.146181
0.603432 0.006949 0.222317
0.609216 0.025513 0.213092
0.584382 -0.090886 0.227967
0.584665 -0.051455 0.195542
0.618017 -0.035148 0.198590
0.552607 0.005718 0.170502
0.626791 0.051855 0.201615
0.657748 0.093328 0.189369
0.561024 0.019139 0.143384
0.653366 0.047231 0.183283
0.654880 0.062155 0.207583
0.574247 -0.074184 0.236416
0.623147 -0.030359 0.235807
0.572436 -0.029761 0.215996
0.653606 0.017769 0.199949
0.620908 0.001617 0.220464
0.593567 -0.005372 0.199482
0.600268 -0.079348 0.221731
0.690058 0.025743 0.149427
0.558378 -0.007484 0.200286
0.555367 -0.054030 0.222415
0.566707 -0.017711 0.167929
0.613039 0.007305 0.241119
0.657482 -0.020774 0.214165
0.628242 0.023052 0.215614
0.570293 -0.061410 0.219315
0.696336 0.019118 0.183011
0.669122 0.013874 0.177262
0.556766 0.032082 0.174961
0.662864 0.082992 0.177507
0.551916 -0.021287 0.190209
0.607048 -0.026266 0.237860
0.569145 0.005712 0.182456
0.666091 -0.004410 0.198300
0.577993 -0.011077 0.232658
0.545832 -0.023976 0.173534
0.677387 0.054901 0.162560
0.576316 0.034072 0.172555
0.648946 -0.033932 0.205639
0.649088 0.002708 0.202743
0.539711 0.006431 0.179962
0.620400 -0.055460 0.192796
0.650372 -0.005474 0.219251
0.653565 0.041700 0.200412
0.566604 -0.012817 0.213952
0.585658 0.052550 0.165950
0.629433 0.051527 0.218061
0.664283 0.059621 0.179621
0.619009 0.035727 0.218841
0.652462 -0.050661 0.207485
0.685913 0.022946 0.172160
0.629335 -0.074997 0.205672
0.568957 0.005159 0.154053
0.671598 0.041447 0.137519
0.577547 -0.058568 0.237024
0.622110 -0.009416 0.203218
0.601916 0.019769 0.230937
0.680046 0.004161 0.201384
0.653206 0.071241 0.181222
0.631129 -0.042127 0.231765
0.655380 0.050132 0.165607
0.577761 0.036661 0.154704
0.617906 -0.050943 0.230205
0.673214 0.031489 0.195742
0.608406 -0.007683 0.241329
0.627396 0.010471 0.208933
0.603251 -0.051111 0.229949
0.671049 -0.000122 0.178013
0.554509 0.016673 0.185130
0.555493 0.021277 0.164592
0.656070 -0.034222 0.226148
0.543197 -0.008987 0.198339
0.589458 0.028386 0.150287
0.635278 0.063785 0.204921
0.597277 -0.035614 0.241049
0.639723 -0.049642 0.194063
0.665473 0.014950 0.209956
0.667233 -0.012115 0.209710
0.637043 -0.011396 0.200516
0.651314 0.086010 0.199008
0.597235 -0.030747 0.199563
0.630136 -0.014595 0.221898
0.645590 -0.019849 0.220397
0.642653 0.029959 0.200013
0.682156 0.013045 0.181316
0.648271 0.052177 0.214383
0.633823 0.041105 0.197563
0.675449 0.040292 0.184070
0.585083 -0.065933 0.200694
0.665358 -0.017664 0.191737
0.557595 -0.036676 0.201831
0.590544 0.010309 0.229476
0.634600 -0.021713 0.235578
0.657231 0.019441 0.187317
0.647766 0.030923 0.212510
0.576086 -0.032011 0.240075
0.684328 0.019270 0.159474
0.693604 0.006664 0.179785
0.675026 0.018446 0.141907
0.664595 0.034089 0.164872
0.650627 0.010729 0.213193
0.638625 -0.064745 0.221465
0.681382 0.031595 0.156838
0.661754 -0.041901 0.206346
0.675465 -0.018833 0.200144
0.683992 0.028915 0.138465
0.566071 0.032902 0.164926
0.579611 0.039298 0.142167
0.561814 0.004931 0.194617
0.594234 0.051819 0.144580
0.599977 0.041866 0.157121
0.578250 0.020580 0.153938
0.658398 0.059135 0.152725
0.675355 0.063161 0.153271
0.647938 0.071473 0.212372
0.673260 0.052718 0.184911
0.659971 0.038305 0.190252
0.560489 -0.023629 0.212762
0.632270 0.010068 0.220749
0.683815 -0.004111 0.181328
0.653364 0.063824 0.194380
0.573197 -0.039970 0.222918
0.581282 -0.040188 0.202406
0.589341 -0.053262 0.240625
0.568294 0.038259 0.147005
0.686738 -0.004812 0.196290
0.627348 -0.027164 0.198827
0.546076 0.001730 0.160909
0.590190 0.059449 0.156874
0.634098 -0.068678 0.196297
0.674007 0.007248 0.188455
0.665247 -0.036062 0.216527
0.554538 0.039679 0.165000
0.555428 -0.015956 0.178022
0.640203 0.047355 0.222247
0.600314 0.007142 0.205687
0.588089 0.043929 0.156966
0.569786 -0.035894 0.203073
0.612617 0.014259 0.215585
0.673508 0.043023 0.161413
0.619756 0.020180 0.207666
0.666568 0.040186 0.202299
0.622114 -0.042992 0.190647
0.612482 0.002322 0.228816
0.609494 -0.004625 0.202717
0.600111 -0.017294 0.241278
0.612208 -0.025307 0.195491
0.573065 -0.005989 0.221121
0.563145 0.009640 0.163272
0.645982 0.075139 0.189617
0.553453 -0.016371 0.163841
0.646426 -0.022495 0.205868
0.574925 0.048859 0.163145
0.598903 -0.079504 0.210129
0.633642 -0.004355 0.235036
0.634778 0.032960 0.212630
0.692526 0.014516 0.151223
0.651204 -0.020131 0.231262
0.618742 -0.080250 0.218431
0.544208 0.013057 0.166975
