ply
format ascii 1.0
element vertex 256
property float x
property float y
property float z
end_header
0.626737 0.008698 0.177198
0.522306 0.042196 0.136938
0.648625 0.112678 0.150524
0.576915 -0.085759 0.176082
0.678999 0.038946 0.105392
0.535762 -0.019297 0.188999
0.631750 -0.056418 0.167312
0.630538 0.068367 0.189405
0.591563 -0.029780 0.207643
0.682502 0.015522 0.159909
0.561915 0.075649 0.137632
0.664274 0.062933 0.148925
0.576629 0.003564 0.175053
0.553273 -0.061578 0.208181
0.536431 -0.000927 0.146652
0.655598 -0.019483 0.161063
0.591605 -0.042636 0.158325
0.545570 0.032357 0.170086
0.598572 0.024624 0.201888
0.637569 0.034925 0.151033
0.602724 -0.065009 0.195159
0.631917 -0.027110 0.189997
0.609442 0.044288 0.173138
0.666098 0.089738 0.125475
0.562882 -0.042013 0.180623
0.616261 -0.017338 0.156522
0.539054 0.062051 0.157325
0.520236 0.011926 0.174566
0.650782 0.086385 0.170092
0.669535 0.034162 0.135834
0.575004 -0.002292 0.206138
0.655471 0.021891 0.176751
0.613734 -0.002666 0.203837
0.655001 0.009316 0.148759
0.552117 0.046269 0.136154
0.679973 0.063782 0.121201
0.602464 -0.020488 0.182136
0.651292 0.050717 0.171182
0.559313 -0.032526 0.206542
0.549234 0.004048 0.178903
0.577065 -0.079374 0.202681
0.561324 -0.065555 0.167019
0.601188 0.018655 0.175254
0.573158 -0.022182 0.165922
0.594018 -0.069148 0.156388
0.626211 0.077848 0.165063
0.620449 0.038056 0.196329
0.634742 -0.033853 0.150012
0.576880 -0.051962 0.206425
0.674138 0.039452 0.160698
0.540652 0.022098 0.137552
0.517652 0.022954 0.152156
0.612276 -0.072941 0.173783
0.651184 -0.037897 0.179167
0.667739 -0.000073 0.171730
0.542408 -0.054900 0.178625
0.528705 -0.019688 0.159547
0.641320 -0.005296 0.193106
0.631709 0.035193 0.175384
0.640695 0.058587 0.149253
0.562857 -0.012588 0.188860
0.651680 0.072109 0.131122
0.541079 0.065961 0.132368
0.625657 -0.049088 0.190918
0.636812 0.093049 0.151900
0.640064 -0.002327 0.161250
0.528196 0.042618 0.160458
0.689836 0.037082 0.127244
0.549451 -0.016417 0.170434
0.578562 -0.064091 0.180237
0.630488 0.056218 0.169698
0.659997 0.052571 0.127543
0.547233 0.013872 0.157927
0.675243 0.013617 0.140105
0.680691 0.051572 0.140129
0.611036 -0.034270 0.201262
0.597156 -0.011930 0.162604
0.594421 -0.007780 0.208327
0.581831 0.023458 0.178508
0.689086 0.030339 0.148026
0.637864 0.017505 0.160490
0.616839 0.017208 0.200093
0.657056 0.042974 0.148348
0.624973 -0.009883 0.183442
0.581850 0.014759 0.199994
0.616672 0.055199 0.188239
0.672483 0.077608 0.138838
0.528469 -0.005218 0.176730
0.664351 0.023127 0.158839
0.519304 0.001044 0.154696
0.641218 0.102953 0.167243
0.638460 -0.025327 0.166324
0.596619 -0.044747 0.195416
0.610296 -0.034892 0.154401
0.650452 0.003787 0.177499
0.574002 -0.044779 0.163512
0.551350 0.046685 0.154495
0.672992 0.027943 0.118755
0.572776 -0.020520 0.209205
0.548668 -0.031517 0.185047
0.520166 0.029417 0.169932
0.560069 0.060057 0.146159
0.536249 0.027618 0.154881
0.610782 -0.001698 0.167941
0.643486 0.070832 0.177462
0.675313 0.045855 0.121551
0.669144 -0.001034 0.154188
0.600432 0.009091 0.190032
0.602273 0.035450 0.186279
0.545835 0.074737 0.146563
0.568213 -0.028832 0.190544
0.655204 0.098546 0.158284
0.548288 -0.049113 0.193630
0.638840 0.020603 0.180692
0.657364 0.078754 0.146628
0.543777 -0.015379 0.152979
0.586317 -0.065280 0.200624
0.648627 0.034628 0.163800
0.535803 0.050982 0.141842
0.537108 0.019983 0.177740
0.652854 0.026770 0.147293
0.635911 0.087114 0.177290
0.579193 -0.064866 0.162198
0.590484 0.005533 0.166390
0.527137 0.013403 0.140629
0.651201 0.063379 0.160904
0.615763 0.026506 0.184347
0.598324 -0.074540 0.182853
0.544413 -0.002813 0.163348
0.617503 0.065923 0.171579
0.622223 -0.062843 0.183243
0.623901 0.029002 0.162829
0.648958 -0.034537 0.158527
0.646187 -0.013576 0.173928
0.562947 -0.055882 0.188518
0.641589 0.076638 0.161103
0.596914 -0.028429 0.162976
0.627494 -0.014449 0.198149
0.664867 0.065941 0.119222
0.631761 0.052850 0.186721
0.662668 0.034033 0.170997
0.560396 -0.023612 0.178627
0.613566 0.004195 0.183057
0.602091 -0.063413 0.168104
0.540915 0.036944 0.140572
0.535917 -0.022494 0.174384
0.655130 -0.006087 0.152985
0.625329 -0.003084 0.163394
0.606847 -0.062423 0.153100
0.549173 -0.009941 0.183654
0.670715 0.064384 0.132539
0.553664 0.069648 0.125941
0.647432 -0.027188 0.188341
0.560453 -0.007764 0.174444
0.660241 0.009602 0.163907
0.645475 0.038964 0.178059
0.625939 0.002875 0.198278
0.563191 -0.046440 0.205205
0.574922 -0.034417 0.173572
0.554503 -0.021632 0.198391
0.647440 0.048875 0.157426
0.594649 0.011916 0.207249
0.673020 0.028745 0.148585
0.631658 0.041328 0.162540
0.666181 0.050922 0.157959
0.524005 0.028291 0.139091
0.594116 0.022209 0.188707
0.653196 0.054572 0.141292
0.572028 0.008042 0.187599
0.680964 0.025862 0.136385
0.612502 -0.055875 0.190536
0.600578 -0.020014 0.203595
0.584717 -0.016643 0.203600
0.540938 0.046186 0.164017
0.627265 0.076610 0.178851
0.621117 -0.065012 0.166898
0.563652 -0.069710 0.204633
0.667396 0.048547 0.140294
0.546490 0.008504 0.145415
0.528924 0.000469 0.164405
0.616421 0.018732 0.173240
0.537213 0.046638 0.129084
0.527729 0.017016 0.158956
0.672430 0.012823 0.168471
0.663803 0.087779 0.139205
0.575648 -0.038807 0.208138
0.524638 0.049028 0.148837
0.655834 -0.005361 0.168970
0.648217 0.069444 0.144608
0.566336 0.000022 0.196264
0.531715 0.007634 0.179190
0.545878 0.059222 0.143012
0.667962 0.039387 0.112337
0.642692 -0.041969 0.167200
0.588868 -0.056551 0.160259
0.633482 0.090199 0.165025
0.528553 0.035960 0.148264
0.609244 -0.047466 0.156344
0.668676 0.077247 0.125695
0.586229 -0.071759 0.189666
0.638544 0.105525 0.153693
0.612996 -0.020994 0.201030
0.580245 -0.084750 0.191611
0.620202 0.046771 0.166888
0.686899 0.042190 0.114750
0.554359 0.056716 0.129469
0.618354 0.035642 0.174865
0.647600 0.087138 0.158062
0.656023 -0.027192 0.175090
0.675477 0.040854 0.147450
0.608039 0.028863 0.173605
0.631603 0.007488 0.164972
0.647059 0.007714 0.162978
0.623870 0.013420 0.188183
0.584424 -0.026339 0.163296
0.646687 0.098285 0.146801
0.611184 -0.044079 0.193906
0.533335 0.032476 0.170689
0.656051 0.083260 0.128620
0.636468 0.066604 0.167246
0.683967 0.018404 0.148156
0.639249 0.001202 0.181480
0.627722 -0.020365 0.159221
0.679937 0.040584 0.133341
0.530430 0.054476 0.161340
0.539916 -0.001744 0.184000
0.556487 -0.037744 0.191860
0.610970 0.043168 0.190838
0.639933 0.011631 0.172675
0.640011 0.048489 0.167513
0.666146 -0.011690 0.168878
0.634872 0.049071 0.153877
0.628981 0.026414 0.184416
0.609786 0.028922 0.194461
0.563896 0.001274 0.181529
0.606367 0.013718 0.205482
0.663443 0.015314 0.142741
0.556862 0.071478 0.149811
0.606817 -0.011121 0.198494
0.625231 0.041267 0.185897
0.645073 0.026289 0.172317
0.671575 0.057459 0.114285
0.525108 -0.009386 0.154849
0.644517 0.046763 0.146172
0.636490 -0.011784 0.181819
0.599391 -0.033722 0.199800
0.610190 0.015585 0.189319
0.635633 -0.013995 0.167219
0.536595 0.043684 0.152364
0.658925 0.068314 0.140006
0.612023 0.055714 0.169975
0.624219 -0.034856 0.194137
0.659398 0.041217 0.162426
0.676608 0.004774 0.160967
0.587946 -0.073035 0.177905
0.535940 -0.010074 0.159632
