ply
format ascii 1.0
element vertex 256
property float x
property float y
property float z
end_header
0.629075 0.003306 0.175917
0.523508 0.036279 0.137632
0.649671 0.107606 0.149259
0.580033 -0.091562 0.175068
0.679484 0.033544 0.102899
0.538522 -0.025511 0.188849
0.634530 -0.061742 0.165816
0.632417 0.063031 0.188202
0.594535 -0.035540 0.206620
0.684436 0.010718 0.157536
0.562676 0.070254 0.137860
0.662179 0.055910 0.146017
0.578993 -0.002242 0.174268
0.556518 -0.067658 0.207467
0.538253 -0.006759 0.146669
0.657995 -0.024607 0.159422
0.594182 -0.048274 0.157272
0.547517 0.026396 0.170237
0.601031 0.018934 0.200933
0.605861 -0.070643 0.193934
0.663997 0.082970 0.120169
0.634683 -0.032490 0.188572
0.634942 0.031605 0.151805
0.565663 -0.047934 0.179782
0.618607 -0.022766 0.155283
0.609702 0.038373 0.174095
0.540395 0.056167 0.157872
0.650880 0.079629 0.166683
0.522459 0.005690 0.174994
0.671821 0.027419 0.133547
0.659198 0.024677 0.171113
0.577733 -0.008188 0.205354
0.616440 -0.008232 0.202658
0.681984 0.056970 0.122742
0.656815 0.004096 0.146936
0.553240 0.040759 0.136296
0.605098 -0.026094 0.181028
0.562299 -0.038553 0.205840
0.551604 -0.001956 0.178724
0.580401 -0.085241 0.201680
0.564183 -0.071467 0.166215
0.655477 -0.001768 0.176706
0.575644 -0.027994 0.165108
0.596796 -0.074761 0.155244
0.603199 0.008191 0.171367
0.677863 0.036768 0.157013
0.628652 0.058738 0.163128
0.637158 -0.039110 0.148543
0.580026 -0.057841 0.205495
0.622711 0.032608 0.195180
0.542094 0.016387 0.137706
0.519361 0.016895 0.152737
0.615261 -0.078443 0.172442
0.653929 -0.043088 0.177520
0.545298 -0.060999 0.178039
0.530939 -0.025707 0.159531
0.639057 -0.008898 0.193848
0.636431 0.028938 0.175891
0.565497 -0.018542 0.188174
0.648843 0.047383 0.164601
0.650220 0.066845 0.129237
0.541869 0.060335 0.132918
0.628617 -0.054521 0.189501
0.640584 -0.010639 0.161372
0.529860 0.036561 0.161034
0.673822 -0.008032 0.162838
0.635178 0.091805 0.154864
0.551851 -0.022355 0.170068
0.661676 0.048354 0.123688
0.581542 -0.069892 0.179261
0.690822 0.032078 0.124525
0.639658 0.011726 0.158578
0.549125 0.008038 0.157880
0.657420 0.032854 0.148146
0.613979 -0.039851 0.200030
0.584064 0.017686 0.177721
0.599521 -0.017533 0.161572
0.597216 -0.013518 0.207331
0.676003 0.005738 0.139848
0.631746 0.077366 0.172451
0.690617 0.025531 0.145433
0.670435 0.070654 0.135274
0.619340 0.011676 0.198934
0.681788 0.045256 0.138620
0.642813 0.054565 0.146706
0.616929 0.020790 0.180925
0.584373 0.008935 0.199183
0.626698 -0.018221 0.172180
0.618674 0.049725 0.187162
0.648534 -0.019646 0.181150
0.530888 -0.011396 0.176848
0.521260 -0.005021 0.155045
0.640970 -0.030594 0.164838
0.599591 -0.050435 0.194305
0.612767 -0.040364 0.153178
0.576652 -0.050577 0.162632
0.552835 0.040994 0.154651
0.602906 0.003449 0.189017
0.575688 -0.026441 0.208397
0.551449 -0.037592 0.184556
0.677562 0.021712 0.116515
0.522143 0.023220 0.170523
0.665483 0.007996 0.162586
0.647886 0.099269 0.165178
0.561207 0.054560 0.146272
0.537961 0.021707 0.155163
0.613114 -0.007201 0.166797
0.645211 0.065647 0.176125
0.634094 0.047555 0.178683
0.669216 0.019111 0.148897
0.600153 0.024418 0.183702
0.546790 0.069042 0.147099
0.626295 0.022169 0.163659
0.571068 -0.034801 0.189726
0.675419 0.039377 0.118677
0.551283 -0.055200 0.192999
0.545847 -0.021198 0.152727
0.589514 -0.071065 0.199565
0.536982 0.045199 0.142351
0.539312 0.013875 0.177931
0.670267 0.062193 0.111951
0.581996 -0.070617 0.161215
0.642076 0.013486 0.174820
0.655891 0.070979 0.144043
0.528718 0.007537 0.140950
0.652953 0.091758 0.151336
0.615475 0.053938 0.171449
0.601416 -0.080181 0.181649
0.546558 -0.008721 0.163197
0.625220 -0.068285 0.181826
0.565944 -0.061833 0.187721
0.651465 -0.039696 0.156912
0.599419 -0.034034 0.161905
0.651275 0.000949 0.161395
0.591997 -0.001855 0.165415
0.657213 -0.011275 0.151263
0.622060 0.041369 0.165759
0.562998 -0.029536 0.177998
0.616002 -0.001322 0.181899
0.604940 -0.068987 0.166892
0.661280 -0.014012 0.170162
0.542276 0.031206 0.140857
0.538439 -0.028575 0.174205
0.649324 0.029085 0.160118
0.663499 0.039030 0.160405
0.665877 0.043993 0.137958
0.609535 -0.067921 0.151842
0.641642 0.088416 0.174266
0.643173 0.079572 0.152347
0.624368 -0.019483 0.197422
0.551761 -0.016001 0.183350
0.554273 0.064251 0.126278
0.562906 -0.013704 0.173795
0.566279 -0.052431 0.204428
0.577587 -0.040232 0.172708
0.557316 -0.027680 0.197766
0.641692 -0.004096 0.180053
0.649380 0.034798 0.173894
0.597269 0.006182 0.206300
0.659971 0.080211 0.134002
0.652373 0.060571 0.155305
0.525433 0.022378 0.139618
0.574482 0.002166 0.186872
0.650181 -0.032433 0.186758
0.615516 -0.061417 0.189236
0.663064 0.064395 0.123640
0.603427 -0.025689 0.202506
0.641432 0.067204 0.162858
0.625895 0.001204 0.191278
0.672747 0.057074 0.136791
0.670752 0.022746 0.163862
0.608345 0.031532 0.192184
0.622803 0.032440 0.176568
0.587539 -0.022450 0.202681
0.647467 0.042642 0.151784
0.542622 0.040267 0.164373
0.623966 -0.070423 0.165488
0.566929 -0.075694 0.203793
0.548200 0.002776 0.145334
0.531062 -0.005594 0.164569
0.538195 0.040994 0.129527
0.666899 -0.005266 0.143942
0.529615 0.010990 0.159296
0.623732 -0.012570 0.184077
0.674037 0.048396 0.151542
0.656328 0.011582 0.177196
0.578702 -0.044701 0.207254
0.525986 0.043030 0.149547
0.623340 0.061983 0.178295
0.627625 -0.008454 0.162098
0.686686 0.021785 0.131528
0.568946 -0.005922 0.195574
0.534060 0.001463 0.179365
0.546968 0.053563 0.143400
0.669183 0.030247 0.110180
0.673423 0.031215 0.146093
0.645349 -0.047202 0.165629
0.593306 0.009788 0.183110
0.591581 -0.062216 0.159199
0.638656 0.039618 0.165855
0.629643 0.041772 0.189285
0.530068 0.030037 0.148766
0.611839 -0.052952 0.155100
0.675887 -0.000190 0.151394
0.589368 -0.077518 0.188592
0.583513 -0.090563 0.190565
0.687540 0.037003 0.112045
0.647189 0.022328 0.149679
0.555210 0.051297 0.129667
0.654026 0.048708 0.139661
0.638432 0.074074 0.182527
0.637541 -0.021309 0.194023
0.685256 0.014644 0.142465
0.658636 -0.032333 0.173421
0.618616 0.009755 0.174215
0.661495 0.051697 0.157661
0.633810 0.002148 0.163636
0.586916 -0.032050 0.162357
0.614133 -0.049641 0.192648
0.535295 0.026395 0.171066
0.630120 -0.025704 0.157858
0.680074 0.036990 0.129649
0.632414 0.020091 0.183181
0.531954 0.048439 0.161985
0.542435 -0.007881 0.183937
0.559438 -0.043817 0.191170
0.658360 0.020891 0.144028
0.609539 -0.016732 0.197364
0.566346 -0.004655 0.180868
0.608953 0.008086 0.204419
0.557922 0.065902 0.150096
0.527162 -0.015397 0.154994
0.665070 0.010155 0.140722
0.676437 0.044070 0.107879
0.602315 -0.039397 0.198689
0.612593 0.010039 0.188227
0.635953 0.081590 0.161383
0.538081 0.037815 0.152785
0.627093 -0.040310 0.192770
0.677841 0.004801 0.165128
0.651512 0.060674 0.139055
0.670443 0.073521 0.124027
0.590976 -0.078750 0.176811
0.630438 0.071213 0.162710
0.538085 -0.016027 0.159571
0.609944 0.019940 0.193639
0.647098 0.022637 0.169350
0.645326 -0.020335 0.167456
0.654541 0.076372 0.124621
0.582829 0.008161 0.171579
0.541529 -0.017566 0.170652
0.610558 0.027023 0.173580
0.576807 -0.081310 0.171288
0.602624 -0.004867 0.202263
0.668528 0.027550 0.121219
0.574072 -0.062827 0.163647
