ply
format ascii 1.0
element vertex 1024
property float x
property float y
property float z
end_header
0.607270 0.033894 0.038710
0.556679 0.004967 0.079196
0.604409 -0.037519 0.060314
0.600774 0.042584 0.076876
0.588537 -0.017641 0.011106
0.576924 0.088923 0.036390
0.530780 0.045931 0.022892
0.558175 0.050554 0.085723
0.555489 -0.044428 0.047906
0.553140 0.096621 0.058949
0.599902 -0.039998 0.016104
0.616298 -0.068152 0.040460
0.531926 0.075364 0.046936
0.571913 -0.020014 0.004741
0.580682 -0.051665 0.058220
0.574162 0.002981 0.080894
0.579889 0.039737 0.086798
0.532649 -0.009916 0.025664
0.613014 0.020745 0.054162
0.525403 0.035303 0.031352
0.566669 0.047014 0.087417
0.583027 -0.060863 0.052134
0.550195 0.008713 0.004185
0.526376 0.054306 0.048603
0.543290 0.082864 0.029237
0.593491 -0.075954 0.027957
0.588014 -0.074229 0.033635
0.525439 0.044589 0.036130
0.601377 0.012481 0.075924
0.602859 -0.071865 0.044540
0.562690 0.004674 0.003395
0.613297 -0.024320 0.051450
0.584034 -0.072947 0.025301
0.597489 -0.013780 0.017167
0.540224 -0.020078 0.051804
0.608405 0.041591 0.045791
0.580106 -0.014687 0.074645
0.595880 -0.034349 0.014315
0.546481 0.028457 0.006290
0.615489 -0.032781 0.034803
0.548055 0.022167 0.080531
0.612127 0.019628 0.046265
0.568338 0.028280 0.086864
0.559173 -0.051131 0.018328
0.547195 0.002279 0.073795
0.533109 0.006072 0.060551
0.587579 0.050409 0.019005
0.605445 0.040746 0.037669
0.603947 -0.019211 0.065016
0.551546 0.072666 0.017094
0.574063 -0.059143 0.049062
0.564249 -0.000176 0.079197
0.550499 -0.019949 0.064237
0.605800 0.054580 0.061878
0.566323 -0.000609 0.079319
0.543917 -0.028152 0.015428
0.593466 0.073734 0.039195
0.540810 0.032792 0.077854
0.607033 0.002547 0.068347
0.596259 0.072450 0.044105
0.589740 -0.055825 0.012638
0.616790 -0.069377 0.034721
0.600501 0.059531 0.070856
0.559635 0.051847 0.085921
0.546584 0.016517 0.078292
0.601397 0.002261 0.022727
0.542100 0.090150 0.057442
0.593755 -0.057312 0.013356
0.526528 0.049138 0.034853
0.604566 0.053750 0.043686
0.527232 0.015189 0.052770
0.543578 -0.010298 0.064170
0.533958 0.058500 0.024505
0.550312 -0.004178 0.004394
0.558014 -0.034381 0.008971
0.578444 0.063896 0.016707
0.615554 -0.028706 0.043645
0.604823 0.055639 0.064696
0.547481 0.072982 0.075898
0.540421 0.066744 0.021221
0.542592 0.035765 0.008967
0.591701 -0.075616 0.027403
0.552519 -0.024941 0.062536
0.600649 -0.033010 0.063611
0.539290 0.087939 0.045291
0.604196 -0.074922 0.038264
0.550447 0.038994 0.083530
0.611838 0.029008 0.059142
0.595332 -0.048811 0.059993
0.613114 0.002097 0.044272
0.560371 0.098835 0.049040
0.612649 -0.008753 0.039617
0.526989 0.007374 0.039393
0.577832 -0.012807 0.075411
0.560140 0.030287 0.005050
0.537158 0.067819 0.025241
0.549138 0.096154 0.047819
0.537529 0.014438 0.010314
0.604784 0.022073 0.030892
0.547600 0.059589 0.079786
0.545530 0.042910 0.080951
0.534261 0.057846 0.023747
0.596141 -0.012851 0.071717
0.570920 -0.059471 0.045975
0.600667 -0.016536 0.019432
0.618393 -0.067029 0.033007
0.566617 0.091929 0.068041
0.596621 -0.042470 0.014195
0.582624 0.065011 0.019837
0.563523 0.098670 0.049103
0.549708 0.043218 0.083036
0.601527 0.054870 0.037389
0.586647 0.045206 0.084749
0.601960 -0.053550 0.056506
0.548743 -0.038049 0.045239
0.607462 0.050886 0.055878
0.543980 -0.009181 0.065298
0.555432 0.007590 0.079651
0.568687 -0.026505 0.069097
0.568907 -0.011605 0.003815
0.613672 -0.000260 0.046988
0.580351 -0.061567 0.050310
0.532782 0.014805 0.064825
0.574726 -0.027907 0.006048
0.562206 -0.057449 0.022981
0.601605 0.051821 0.035709
0.590282 -0.032984 0.066940
0.550013 -0.040943 0.020472
0.554701 -0.025241 0.006887
0.581086 0.090237 0.046069
0.593759 0.078794 0.053388
0.555179 -0.006296 0.074226
0.526161 0.025074 0.054821
0.601586 -0.064540 0.051096
0.575575 -0.053282 0.055368
0.563809 0.037981 0.087461
0.549346 -0.033050 0.052947
0.554053 0.028524 0.004872
0.535495 0.072053 0.064428
0.532992 0.050834 0.069846
0.570387 0.068016 0.082839
0.587615 -0.033313 0.067193
0.562238 0.096351 0.040559
0.613848 -0.011898 0.048216
0.585713 0.073446 0.027468
0.569968 0.020854 0.085603
0.549602 0.063719 0.079912
0.587130 0.084232 0.043888
0.561233 0.095992 0.063036
0.561148 -0.004023 0.003274
0.604150 -0.041045 0.059557
0.566051 0.089325 0.030051
0.595379 0.075576 0.061319
0.557998 0.091582 0.069042
0.561643 0.020836 0.084758
0.547204 0.056113 0.080203
0.580555 0.020580 0.008684
0.581930 0.087683 0.040851
0.581128 -0.048171 0.010405
0.528008 0.048667 0.029851
0.546099 -0.037174 0.026700
0.593974 -0.053160 0.058291
0.604805 -0.022364 0.063552
0.529731 -0.001560 0.040811
0.605586 -0.057376 0.053791
0.543380 -0.014569 0.061084
0.604252 0.057068 0.046420
0.576044 -0.020300 0.072634
0.529937 0.002491 0.022961
0.569903 0.001380 0.003923
0.572949 -0.009401 0.076619
0.557935 0.089671 0.029568
0.588830 -0.036678 0.065759
0.553565 -0.014807 0.004890
0.604103 0.058221 0.063505
0.544950 -0.033703 0.042984
0.567639 -0.013233 0.003787
0.554905 0.010871 0.003720
0.571597 0.096567 0.050203
0.587255 0.071624 0.027761
0.562867 -0.043728 0.011232
0.576141 0.068240 0.082176
0.596176 0.063998 0.073435
0.609513 -0.020390 0.029010
0.584896 0.016908 0.010845
0.608370 0.015513 0.069357
0.575585 0.081394 0.025598
0.534119 0.017655 0.067801
0.555406 -0.018416 0.005138
0.527255 0.014194 0.026699
0.565371 0.092652 0.067409
0.584853 -0.034811 0.066808
0.603958 0.060050 0.050582
0.586156 -0.069337 0.043995
0.575529 0.018244 0.006415
0.531860 0.061609 0.064292
0.540350 0.060989 0.018724
0.592127 0.011651 0.080619
0.563627 0.072253 0.015782
0.594451 0.077286 0.059885
0.583202 0.083013 0.034694
0.539146 0.023233 0.009687
0.525569 0.014720 0.035156
0.538493 0.050150 0.075545
0.608666 0.010971 0.068348
0.592295 -0.024455 0.012910
0.525627 0.034690 0.054968
0.576347 -0.068115 0.022193
0.612114 -0.072982 0.035477
0.561037 -0.011210 0.074180
0.577272 -0.058111 0.052094
0.598606 0.057417 0.033759
0.570268 -0.052587 0.053058
0.589633 0.015114 0.082163
0.604857 0.055295 0.065019
0.538157 0.074425 0.028007
0.604657 -0.060482 0.052737
0.536584 -0.014339 0.049729
0.579890 0.087244 0.067597
0.595852 -0.039655 0.013985
0.570214 -0.058987 0.045941
0.598348 0.071908 0.052347
0.557364 -0.038376 0.010909
0.550400 0.086800 0.028301
0.612906 -0.016983 0.037384
0.587497 -0.029470 0.010161
0.534321 -0.012107 0.020807
0.605573 0.011807 0.029940
0.528231 0.010930 0.052479
0.608601 0.022005 0.037626
0.606570 -0.038149 0.058704
0.576797 0.093801 0.049132
0.593648 0.066700 0.074333
0.526590 0.018926 0.027547
0.567283 -0.036742 0.063197
0.600832 -0.061204 0.015471
0.556858 0.072186 0.080149
0.583939 -0.070688 0.039478
0.526330 0.014948 0.029869
0.581081 -0.037058 0.065842
0.565791 0.045623 0.007929
0.580741 0.088286 0.064819
0.527174 0.011776 0.049357
0.587031 0.011892 0.011771
0.588509 0.038714 0.084595
0.614439 -0.020613 0.042632
0.594931 0.004864 0.016894
0.559681 0.003032 0.003300
0.570767 -0.015051 0.004210
0.577194 -0.045181 0.009587
0.584826 -0.066357 0.017393
0.602055 0.029676 0.076734
0.620126 -0.060375 0.039247
0.538467 0.072723 0.068353
0.564063 0.094514 0.065062
0.526474 0.037921 0.057832
0.582717 0.078301 0.028525
0.599453 0.068383 0.047050
0.617237 -0.065845 0.041707
0.570051 0.042215 0.008110
0.595819 0.044243 0.080584
0.555787 -0.049377 0.021877
0.555515 0.077757 0.019055
0.527437 0.057466 0.039210
0.529834 -0.001748 0.028712
0.570225 0.042083 0.087768
0.597468 -0.007217 0.017808
0.610194 0.027020 0.065910
0.606216 0.031740 0.035868
0.597038 -0.046269 0.014160
0.563084 -0.058459 0.034374
0.595266 0.073007 0.042269
0.597681 0.072833 0.051363
0.530388 0.039866 0.066595
0.547975 0.068913 0.016884
0.580096 -0.012197 0.075530
0.616577 -0.057616 0.046630
0.619561 -0.048645 0.036301
0.548990 -0.006165 0.004884
0.612251 -0.015628 0.054798
0.593256 0.078664 0.048677
0.547132 0.015363 0.005121
0.572162 0.085351 0.027721
0.607102 -0.047492 0.019316
0.576507 0.037965 0.087334
0.529438 0.009770 0.055075
0.597016 0.038973 0.024607
0.583464 0.007694 0.009149
0.567232 0.093893 0.037623
0.603709 0.053569 0.041177
0.528316 0.040842 0.025284
0.577543 -0.068679 0.035738
0.598387 -0.001316 0.074229
0.546621 -0.006971 0.068901
0.556343 0.092004 0.032852
0.592562 0.048779 0.081826
0.560063 -0.021540 0.005009
0.588330 0.076525 0.072422
0.534051 0.066302 0.065673
0.564718 -0.055412 0.044835
0.610241 -0.046078 0.054385
0.613244 -0.022197 0.051513
0.548129 -0.037907 0.019781
0.552374 -0.044578 0.041285
0.602039 -0.058061 0.054565
0.619819 -0.050143 0.035908
0.578793 0.025391 0.086012
0.617982 -0.058249 0.026169
0.619326 -0.053439 0.030730
0.568483 0.090488 0.069345
0.549292 0.074921 0.076145
0.563962 0.097952 0.045604
0.598524 0.059155 0.034701
0.584005 0.081803 0.071312
0.564306 0.053631 0.009468
0.541967 0.071896 0.072414
0.534161 0.073413 0.060723
0.610452 0.033685 0.047679
0.584810 0.071938 0.025384
0.591748 -0.069886 0.019166
0.604193 0.027499 0.074702
0.526242 0.012508 0.032352
0.562071 0.096795 0.041546
0.610389 0.031362 0.045893
0.609797 -0.027611 0.027048
0.526278 0.052112 0.051361
0.534385 0.010416 0.065187
0.593157 -0.037331 0.064822
0.536838 0.083480 0.041041
0.541567 0.058823 0.016853
0.592470 -0.028064 0.012803
0.531898 0.038573 0.068872
0.547102 -0.038820 0.034868
0.576963 -0.018700 0.073268
0.612760 -0.053905 0.050978
0.530447 0.035929 0.066339
0.578073 -0.058194 0.014018
0.540628 0.043318 0.011911
0.528617 0.008916 0.051844
0.564969 0.097472 0.044563
0.615878 -0.044036 0.048116
0.551468 -0.029260 0.058558
0.525068 0.044012 0.038051
0.548609 0.015487 0.079096
0.612760 -0.040067 0.052521
0.609719 -0.041154 0.022839
0.572078 0.014127 0.005102
0.590510 0.014895 0.014624
0.609647 -0.044428 0.055142
0.562809 0.024120 0.004599
0.575559 -0.003388 0.005105
0.524134 0.029315 0.046383
0.573276 0.094220 0.060056
0.552697 -0.046739 0.027653
0.574752 -0.016887 0.073896
0.536817 0.049654 0.017120
0.563781 0.086938 0.026643
0.586184 -0.071331 0.040269
0.616993 -0.035667 0.039433
0.537395 0.015480 0.010520
0.569781 0.092717 0.065714
0.531667 0.064562 0.061932
0.557898 0.044236 0.007216
0.594971 -0.026561 0.014323
0.555272 0.003519 0.078218
0.557824 0.086593 0.026072
0.598115 0.038609 0.025767
0.598173 -0.042290 0.061731
0.532442 0.014217 0.016070
0.528134 0.048077 0.029173
0.571095 0.027928 0.086870
0.527897 0.060894 0.041376
0.609218 0.044217 0.057220
0.573501 0.093504 0.061557
0.532302 0.019953 0.066014
0.586662 0.072842 0.028036
0.559844 0.045576 0.007455
0.591525 -0.040033 0.064111
0.609360 -0.041319 0.022492
0.613907 -0.021092 0.038440
0.541428 0.089744 0.056495
0.587980 -0.070404 0.043395
0.527243 0.022267 0.056955
0.574356 -0.032004 0.067546
0.561361 -0.009664 0.074933
0.534614 -0.015961 0.028143
0.566286 -0.012789 0.074681
0.539454 0.045829 0.076843
0.538682 0.021869 0.073971
0.611875 -0.069862 0.043440
0.594505 0.075549 0.044865
0.572685 0.090325 0.034958
0.582089 -0.045077 0.062131
0.552599 0.006340 0.003790
0.612410 -0.027346 0.031079
0.531986 0.060425 0.065166
0.524066 0.036372 0.044339
0.545984 -0.037051 0.035724
0.542299 0.090036 0.042050
0.543836 0.090735 0.040515
0.578442 0.089997 0.063928
0.590600 0.080491 0.064029
0.606125 0.014884 0.031453
0.537581 0.062553 0.071958
0.559929 0.015457 0.003828
0.569524 -0.028317 0.005789
0.613795 0.002569 0.050695
0.608303 0.025937 0.069583
0.615512 -0.028434 0.039493
0.592164 -0.033211 0.066490
0.545439 0.088933 0.034759
0.608257 0.047621 0.059030
0.528540 0.005987 0.026033
0.536027 0.082341 0.054980
0.542328 0.083404 0.030836
0.565606 -0.015460 0.073453
0.574971 -0.052825 0.055450
0.533599 -0.003628 0.016458
0.553405 0.066656 0.080824
0.605263 -0.025838 0.062385
0.601816 0.029245 0.076956
0.564294 0.086163 0.025894
0.538881 0.053261 0.016736
0.549139 0.086121 0.028233
0.568976 0.092247 0.035726
0.591386 -0.021849 0.070549
0.528403 0.017177 0.057473
0.592043 0.044710 0.021187
0.526297 0.027255 0.055967
0.556494 0.016819 0.082620
0.564863 0.012423 0.003886
0.611933 -0.003456 0.058703
0.527394 0.028264 0.024708
0.589925 -0.049065 0.060456
0.578850 -0.033682 0.067224
0.588665 -0.058765 0.055074
0.540347 -0.016348 0.012217
0.574588 0.007372 0.082192
0.554789 0.058772 0.083267
0.550927 -0.002427 0.073907
0.570395 -0.048323 0.011197
0.595807 -0.036347 0.014166
0.566142 0.010176 0.082715
0.532675 0.020033 0.066582
0.587153 0.022108 0.013103
0.617052 -0.065744 0.026805
0.552715 0.030700 0.084030
0.607680 0.048373 0.049847
0.540906 0.087812 0.059360
0.530831 0.006426 0.055967
0.608166 0.047772 0.052311
0.573749 0.056177 0.012140
0.586484 -0.007197 0.010277
0.577814 0.049161 0.012057
0.561479 0.062069 0.084108
0.524825 0.043993 0.040347
0.577478 0.004035 0.006045
0.614476 -0.021866 0.040978
0.563827 -0.032396 0.064397
0.525856 0.015442 0.032006
0.604965 0.052265 0.043487
0.566528 0.094779 0.063804
0.544339 0.092966 0.054793
0.536261 0.070622 0.028023
0.541938 0.041891 0.078902
0.603998 0.053605 0.068908
0.536328 0.001266 0.011411
0.527769 0.060866 0.049672
0.576862 -0.010096 0.076409
0.528221 0.032729 0.023371
0.526216 0.010664 0.037016
0.608283 0.040983 0.065998
0.577249 0.085661 0.031665
0.552919 0.054121 0.083354
0.579709 -0.043355 0.009230
0.611801 -0.040013 0.053660
0.612766 0.023072 0.055775
0.548208 0.069666 0.077502
0.594384 -0.075692 0.035226
0.549708 0.088083 0.030172
0.593444 -0.037801 0.064592
0.601394 0.066161 0.051745
0.557662 0.019996 0.083691
0.599258 -0.058123 0.014641
0.588657 -0.055412 0.012465
0.591714 0.016230 0.081714
0.577392 0.031431 0.086901
0.601686 0.019758 0.076712
0.529301 0.001991 0.045857
0.537565 -0.020778 0.042476
0.552290 0.004389 0.077341
0.606416 0.016351 0.071861
0.562632 -0.046099 0.053572
0.588158 0.038188 0.084731
0.619090 -0.049714 0.042281
0.587598 -0.022416 0.010378
0.579979 0.076990 0.077426
0.584484 0.036282 0.085841
0.595310 -0.017078 0.015313
0.577384 0.085711 0.031857
0.527506 0.052194 0.033713
0.594718 0.044738 0.081209
0.539793 -0.001746 0.065421
0.604315 -0.027994 0.062664
0.551502 0.016627 0.004296
0.602456 -0.040590 0.060557
0.549484 -0.011885 0.068242
0.558761 0.023090 0.004310
0.599749 -0.071235 0.020613
0.529964 0.067119 0.054109
0.537858 -0.016006 0.015466
0.574815 -0.022150 0.071851
0.563070 0.091227 0.069501
0.555409 -0.004508 0.075102
0.564311 0.091049 0.069563
0.559901 -0.028528 0.064850
0.613623 -0.028600 0.032803
0.541619 -0.014999 0.010413
0.612065 -0.029636 0.053936
0.603803 0.060202 0.049948
0.594688 0.050734 0.025557
0.536250 0.083032 0.054346
0.585384 0.053205 0.018050
0.553362 -0.047725 0.033074
0.541030 0.074715 0.024965
0.566345 0.063026 0.012436
0.603106 -0.016376 0.066396
0.572916 -0.029069 0.006046
0.617531 -0.044771 0.031763
0.541462 0.066452 0.074082
0.553454 -0.045168 0.042924
0.590146 0.068231 0.076449
0.570795 -0.064463 0.021791
0.609935 -0.031819 0.025854
0.602703 0.055230 0.070304
0.548053 0.074056 0.075815
0.589028 0.084117 0.057297
0.607799 0.045940 0.064246
0.554769 0.006488 0.003600
0.617274 -0.052912 0.046348
0.590310 -0.016097 0.012244
0.527027 0.043974 0.029769
0.601891 0.032553 0.076784
0.588039 -0.074765 0.030076
0.525330 0.048826 0.043853
0.535718 0.023864 0.071402
0.606321 -0.030823 0.022224
0.570325 0.023005 0.005558
0.540292 -0.027847 0.035232
0.595928 -0.047573 0.013628
0.612905 -0.024971 0.033198
0.538653 -0.003889 0.062528
0.558490 0.048596 0.086028
0.559061 0.059784 0.084245
0.618124 -0.045554 0.043619
0.588910 -0.064829 0.015969
0.567631 0.039087 0.007110
0.573967 0.091919 0.064436
0.597928 0.071676 0.048545
0.560015 0.006192 0.003393
0.568425 -0.034292 0.007112
0.599782 0.054917 0.034266
0.531299 0.000392 0.019951
0.587414 -0.026143 0.010166
0.553528 -0.017407 0.067793
0.541155 0.060620 0.075474
0.558485 -0.044322 0.013518
0.600106 0.068756 0.052249
0.619690 -0.063309 0.031772
0.612766 0.014305 0.059893
0.594420 -0.053247 0.013096
0.551627 0.095114 0.061513
0.582151 0.090195 0.054879
0.590368 0.066704 0.027957
0.576971 0.012365 0.006408
0.588121 0.039618 0.016886
0.572894 0.069189 0.016461
0.536800 0.068383 0.025991
0.559878 0.037070 0.005950
0.600315 0.045547 0.076835
0.563400 0.091399 0.069278
0.528126 0.044611 0.061870
0.544117 0.092573 0.055798
0.600333 0.068507 0.055949
0.602789 0.020876 0.027727
0.588040 0.084475 0.047441
0.599343 0.064581 0.040934
0.538030 0.003350 0.066326
0.603709 -0.016210 0.065951
0.569759 -0.038313 0.063158
0.544918 -0.028858 0.050778
0.538689 0.050306 0.015718
0.524542 0.035135 0.035480
0.605774 -0.005888 0.067007
0.605050 0.042150 0.037490
0.586474 -0.064949 0.049539
0.536779 0.011250 0.010765
0.584238 -0.061212 0.052247
0.596884 0.028314 0.022170
0.536072 0.058473 0.021839
0.575354 0.026733 0.007277
0.531691 0.074522 0.044379
0.576602 0.053595 0.085789
0.560162 0.010508 0.003573
0.552433 0.072195 0.078657
0.567724 -0.043908 0.010061
0.618345 -0.065684 0.039529
0.527733 0.016625 0.055334
0.595717 -0.024707 0.014909
0.610104 0.002016 0.064024
0.590866 -0.058945 0.055172
0.584372 0.086356 0.042562
0.582937 0.082563 0.033723
0.602238 -0.021630 0.020079
0.527476 0.005325 0.036606
0.545181 -0.025646 0.054590
0.598915 -0.001697 0.073799
0.583713 -0.016977 0.008444
0.600464 0.068220 0.056433
0.544043 0.037126 0.080344
0.593945 0.005779 0.078493
0.611505 -0.036014 0.054343
0.590806 0.050944 0.021800
0.562543 0.096225 0.062400
0.612964 -0.012264 0.053323
0.542725 -0.028617 0.046152
0.549906 -0.042829 0.035048
0.561928 -0.052656 0.017000
0.538615 0.020158 0.009859
0.600586 -0.027875 0.065088
0.596260 0.056543 0.077353
0.609853 0.012099 0.066728
0.606146 -0.057032 0.017204
0.583764 0.049092 0.085087
0.586800 0.060174 0.081599
0.559873 -0.055786 0.030686
0.541564 0.004562 0.007090
0.600957 0.048983 0.033186
0.603489 0.047449 0.036928
0.585781 0.086625 0.047262
0.554169 0.008881 0.079607
0.532817 0.031137 0.069181
0.572551 0.039060 0.087706
0.530117 0.024582 0.063852
0.608856 0.024061 0.038739
0.537096 -0.010274 0.055033
0.609128 -0.049357 0.054525
0.527565 0.010948 0.050127
0.598608 -0.064104 0.051658
0.553908 -0.047109 0.039433
0.598624 -0.065615 0.016502
0.586468 0.034323 0.085275
0.572953 0.090593 0.035616
0.561463 -0.034494 0.008111
0.530523 0.016064 0.061557
0.545453 0.004560 0.073607
0.559765 0.086305 0.073784
0.610378 -0.005637 0.034712
0.583387 0.020524 0.010284
0.612678 -0.014912 0.053778
0.531160 0.072742 0.043002
0.532558 0.022255 0.067042
0.551943 0.095435 0.040764
0.534645 0.066301 0.066666
0.550119 0.046206 0.008704
0.610947 -0.070500 0.043313
0.548149 0.070043 0.017297
0.557846 -0.051057 0.020249
0.554176 0.083918 0.024104
0.605055 -0.022553 0.063294
0.593824 0.045304 0.022998
0.608939 -0.004517 0.063695
0.595426 0.068245 0.036628
0.533590 0.077237 0.039835
0.589956 0.026843 0.083744
0.537319 0.074516 0.065682
0.548682 -0.038660 0.019719
0.576041 0.065137 0.083136
0.571705 0.007936 0.082369
0.532553 -0.008414 0.043687
0.568469 -0.005630 0.077715
0.568244 0.096426 0.059305
0.565525 -0.002919 0.078391
0.569759 -0.059366 0.044905
0.565802 0.087175 0.073218
0.602685 -0.058078 0.054391
0.589040 -0.016357 0.072927
0.536546 -0.006007 0.012699
0.529637 -0.000565 0.042773
0.553566 0.025521 0.083572
0.597570 0.072753 0.059590
0.592272 0.007270 0.079517
0.617610 -0.039272 0.037171
0.572042 0.016889 0.084741
0.606236 0.001781 0.068991
0.544967 0.093747 0.049000
0.577423 -0.007166 0.077418
0.584421 0.084682 0.066987
0.551721 0.096595 0.057357
0.542862 0.014597 0.006690
0.527801 0.017045 0.055800
0.568953 0.035737 0.087686
0.563797 0.046015 0.087303
0.613380 0.009871 0.056804
0.596490 -0.065195 0.016055
0.546627 -0.025462 0.010787
0.547547 0.095457 0.052478
0.552261 0.058407 0.082345
0.532573 0.073673 0.056009
0.573331 -0.003464 0.004497
0.595284 -0.005349 0.016271
0.558012 -0.021825 0.067803
0.602146 -0.033639 0.062649
0.549161 -0.032001 0.053763
0.593251 -0.073660 0.022798
0.558447 0.098811 0.051010
0.593548 -0.031806 0.066647
0.604968 0.056306 0.062995
0.575262 -0.008690 0.076929
0.604520 0.026952 0.031598
0.574985 -0.063083 0.044688
0.586438 0.077449 0.032077
0.578249 -0.009219 0.005973
0.548085 0.053545 0.011400
0.592474 0.080425 0.056315
0.609822 -0.007862 0.061355
0.543100 -0.014993 0.060456
0.584872 0.082783 0.036770
0.556549 0.084612 0.074262
0.575590 -0.048245 0.058938
0.616579 -0.053864 0.047225
0.532275 0.038575 0.018205
0.542789 0.058279 0.015761
0.551040 0.029339 0.005286
0.612527 -0.048892 0.052016
0.581264 -0.019592 0.007299
0.568314 0.092376 0.035580
0.562572 -0.048381 0.051259
0.603143 0.060771 0.047631
0.526386 0.009852 0.037460
0.576600 0.032764 0.087101
0.551580 0.043387 0.007698
0.564928 -0.021696 0.070470
0.538792 -0.021475 0.046153
0.595225 0.074312 0.064542
0.602771 -0.045465 0.058984
0.549757 -0.037709 0.016416
0.529387 0.019018 0.021023
0.585227 0.058348 0.019429
0.592022 0.070919 0.073104
0.560861 -0.002477 0.077692
0.556097 -0.041308 0.052297
0.589851 0.062594 0.079251
0.615398 -0.055073 0.023479
0.617072 -0.036465 0.037972
0.615633 -0.032092 0.035835
0.572800 0.008229 0.082463
0.529334 0.045716 0.064514
0.613705 -0.007470 0.050592
0.544577 0.062835 0.016326
0.586907 -0.045950 0.010723
0.577209 -0.057741 0.013943
0.546106 -0.021639 0.009499
0.525478 0.035790 0.054444
0.573865 0.078272 0.078436
0.556592 -0.047574 0.017710
0.564587 0.045160 0.007686
0.531740 0.068214 0.059306
0.593454 0.055212 0.025850
0.523946 0.033653 0.043138
0.602329 0.033362 0.029887
0.563247 -0.044143 0.011284
0.553866 -0.032326 0.058242
0.555573 0.084902 0.024705
0.581204 -0.031269 0.068324
0.528234 0.050008 0.060810
0.604208 0.053936 0.042793
0.607078 -0.058993 0.017571
0.545741 0.092323 0.040953
0.604238 0.048861 0.039240
0.533638 -0.006202 0.050947
0.573525 0.006352 0.081913
0.599274 -0.062990 0.015546
0.526542 0.016393 0.028418
0.548117 0.046628 0.081977
0.604634 0.017720 0.029712
0.573410 -0.066766 0.033413
0.543552 -0.031462 0.043078
0.606102 0.042520 0.039919
0.600716 -0.074284 0.040930
0.597477 0.000495 0.075312
0.545505 0.050975 0.011677
0.552892 -0.021594 0.006439
0.546673 -0.027489 0.054890
0.542112 0.033154 0.078862
0.600220 -0.066377 0.049914
0.575023 0.086675 0.031179
0.557500 0.060381 0.083729
0.552647 -0.043182 0.044870
0.561474 -0.029602 0.006660
0.550490 -0.043367 0.025630
0.568079 -0.033108 0.065569
0.620035 -0.057577 0.040544
0.582009 -0.068509 0.019709
0.607765 -0.006837 0.029799
0.613006 -0.011768 0.039910
0.525014 0.040178 0.035285
0.525263 0.016052 0.042862
0.600365 0.065939 0.045806
0.575294 -0.068678 0.026052
0.582977 0.089654 0.051921
0.550360 0.061927 0.013201
0.554592 -0.030222 0.008566
0.525823 0.013719 0.044030
0.583126 -0.022703 0.071608
0.585537 0.077673 0.031151
0.537391 0.053441 0.074074
0.569854 0.058144 0.085456
0.567688 -0.046485 0.011032
0.619683 -0.049130 0.038470
0.556180 -0.015195 0.004479
0.589839 -0.059836 0.013713
0.564599 0.046118 0.087377
0.539508 -0.023547 0.044891
0.570246 -0.049169 0.055955
0.526116 0.035247 0.056650
0.561531 -0.008003 0.003381
0.580359 -0.068184 0.041132
0.594316 0.066171 0.032941
0.556237 -0.004481 0.075445
0.600429 0.007719 0.075583
0.609600 0.042212 0.058743
0.601483 0.017852 0.025420
0.553813 0.097879 0.053297
0.542237 0.084970 0.064754
0.601218 -0.001329 0.072416
0.600781 0.067528 0.052724
0.591306 0.020238 0.082513
0.530360 0.011523 0.019469
0.571090 0.027271 0.086770
0.546373 0.041597 0.081493
0.576740 0.093358 0.057054
0.588401 0.084379 0.048588
0.572778 -0.035641 0.007291
0.539120 0.017598 0.073258
0.541605 -0.028571 0.042131
0.613234 0.000606 0.055735
0.614687 -0.063870 0.022805
0.533830 -0.014139 0.029299
0.563035 0.004793 0.080686
0.588530 0.020785 0.013941
0.605590 -0.025886 0.062092
0.609222 0.041183 0.048793
0.537387 0.054135 0.018466
0.579134 -0.042395 0.063113
0.599552 0.069667 0.058273
0.574243 -0.039562 0.063712
0.573999 0.038691 0.008559
0.609858 0.001702 0.064328
0.549282 0.032594 0.082843
0.534800 0.019568 0.013456
0.544078 -0.013007 0.062911
0.586859 -0.029418 0.068768
0.597039 -0.061486 0.053486
0.611194 0.033797 0.052308
0.538164 0.042918 0.013521
0.562773 -0.033974 0.062935
0.538332 0.070868 0.025534
0.611363 -0.065734 0.047349
0.571464 0.013234 0.004893
0.579589 0.083155 0.073000
0.544416 -0.015908 0.008636
0.579901 0.059000 0.015831
0.601921 0.060547 0.067115
0.596539 0.026351 0.021464
0.524259 0.027601 0.046810
0.538379 0.018269 0.072762
0.600781 -0.068098 0.048516
0.539631 -0.012443 0.011348
0.539374 0.016985 0.009012
0.558240 0.034870 0.005582
0.536479 -0.010731 0.014640
0.555323 0.030131 0.084819
0.568769 0.032845 0.087443
0.538930 0.081197 0.063170
0.569029 0.070061 0.015704
0.589806 0.012917 0.081640
0.606385 -0.060572 0.052154
0.537941 0.072864 0.027212
0.584990 -0.062191 0.051635
0.554802 0.015849 0.003946
0.544096 0.092561 0.055771
0.614974 -0.026722 0.038230
0.611904 -0.035916 0.026867
0.594116 -0.001953 0.015665
0.582824 0.020662 0.084668
0.609812 -0.006195 0.061889
0.562127 0.048328 0.008091
0.606237 -0.068685 0.020290
0.595585 0.071316 0.067978
0.607258 0.037087 0.069560
0.542623 -0.016153 0.059035
0.562144 0.064732 0.083499
0.602040 0.017112 0.025986
0.591087 -0.071332 0.020440
0.613098 0.007758 0.058121
0.524260 0.038667 0.046120
0.604008 0.056801 0.065912
0.545770 -0.036948 0.033245
0.578122 0.047643 0.011870
0.529101 0.044764 0.064113
0.556586 0.028066 0.084913
0.587862 -0.032944 0.067305
0.534825 0.078115 0.057571
0.581053 -0.010744 0.007171
0.598574 0.071358 0.058374
0.611855 -0.047884 0.052749
0.568197 -0.043607 0.059092
0.530433 0.046498 0.023732
0.592352 -0.058857 0.013522
0.530887 0.063355 0.032722
0.608856 0.008406 0.034802
0.536329 0.059760 0.022160
0.553041 0.081092 0.022029
0.589321 0.001582 0.078745
0.547146 0.051345 0.011100
0.578267 0.062614 0.016126
0.529493 0.028603 0.063643
0.596851 -0.054659 0.057186
0.558848 0.089290 0.071331
0.562543 -0.058661 0.026620
0.584585 -0.033126 0.009007
0.559529 -0.021168 0.004999
0.606999 0.019665 0.071423
0.590392 0.076727 0.037314
0.604609 -0.010285 0.066783
0.603835 -0.014242 0.022996
0.551299 0.049659 0.083212
0.566267 -0.061353 0.022789
0.610934 -0.016897 0.032699
0.527169 0.007477 0.042403
0.596464 0.029232 0.021919
0.587893 -0.011375 0.010981
0.530321 -0.003103 0.027763
0.581103 -0.059976 0.052171
0.575149 -0.018878 0.073155
0.544392 -0.034828 0.029412
0.536716 -0.015964 0.047963
0.600197 0.066345 0.045924
0.613495 0.008985 0.055890
0.569764 -0.050912 0.012385
0.607380 -0.027288 0.024191
0.547327 0.045903 0.009444
0.537583 -0.003246 0.061452
0.593901 0.030073 0.019660
0.561055 -0.046068 0.013108
0.526283 0.054258 0.044098
0.561108 0.082647 0.022310
0.533028 0.061787 0.027629
0.560355 -0.004189 0.003291
0.583136 -0.006563 0.008332
0.533924 -0.014523 0.032839
0.537628 0.011752 0.069832
0.572397 0.096269 0.051250
0.568100 -0.029675 0.067387
0.544980 0.092378 0.042569
0.587419 -0.007704 0.076147
0.574972 -0.030976 0.068098
0.529859 0.068976 0.043383
0.554956 -0.000861 0.003539
0.611592 0.025391 0.047086
0.528141 0.062796 0.048526
0.542753 0.046429 0.011599
0.610852 -0.042449 0.023514
0.539177 0.084768 0.059989
0.599848 -0.032253 0.064218
0.527600 0.059319 0.051171
0.549975 -0.034353 0.052406
0.591069 0.053579 0.081576
0.589669 -0.068885 0.018561
0.582417 -0.061015 0.014684
0.542178 -0.019003 0.056224
0.529958 0.025410 0.063781
0.577745 0.064320 0.083071
0.579824 -0.013335 0.075139
0.569857 -0.009932 0.003870
0.574870 0.041139 0.087484
0.555023 0.029420 0.004920
0.600638 -0.022070 0.018634
0.607091 0.025278 0.071356
0.612367 -0.006671 0.056620
0.577172 0.082235 0.027512
0.527368 0.010176 0.028245
0.602638 0.045212 0.074404
0.592106 0.080214 0.048943
0.530734 -0.001829 0.046519
0.597022 0.046010 0.026638
0.535635 0.080545 0.056722
0.616290 -0.067784 0.041001
0.613331 0.007704 0.047176
0.592578 0.033259 0.019108
0.605958 -0.011383 0.026219
0.571832 -0.046909 0.058419
0.548281 0.085745 0.028326
0.550773 0.007951 0.077874
0.586034 0.019458 0.083871
0.526959 0.031610 0.058773
0.553121 -0.025157 0.062835
0.613555 -0.035881 0.051427
0.527981 0.015897 0.024231
0.591696 0.039044 0.019553
0.617714 -0.039679 0.041182
0.615218 -0.030096 0.046559
0.592498 -0.042368 0.012349
0.565857 -0.057631 0.042754
0.529008 0.063485 0.038853
0.573547 -0.064668 0.040072
0.568337 0.086896 0.073164
0.582705 0.036579 0.012299
0.581639 0.048782 0.085677
0.526107 0.052898 0.042445
0.610838 0.017110 0.065328
0.570156 0.096530 0.056960
0.599014 0.048269 0.029981
