ply
format ascii 1.0
element vertex 1024
property float x
property float y
property float z
end_header
0.607272 0.034605 0.037759
0.556245 0.005249 0.077381
0.604161 -0.037043 0.058533
0.600373 0.042871 0.075949
0.588817 -0.016612 0.009385
0.576967 0.089668 0.035732
0.530957 0.046849 0.021266
0.557684 0.050759 0.084432
0.555373 -0.043794 0.045530
0.552947 0.097124 0.058122
0.600122 -0.039027 0.014254
0.616251 -0.067458 0.038466
0.531856 0.076011 0.045648
0.572261 -0.018906 0.002817
0.580453 -0.051155 0.056030
0.573709 0.003236 0.079242
0.579383 0.039922 0.085616
0.532780 -0.009026 0.023434
0.612847 0.021282 0.053124
0.525487 0.036129 0.029549
0.566159 0.047197 0.086176
0.582860 -0.060286 0.049867
0.550559 0.009834 0.002352
0.526282 0.054938 0.047020
0.543410 0.083704 0.028155
0.593575 -0.075110 0.025635
0.588039 -0.073447 0.031274
0.525475 0.045361 0.034431
0.600978 0.012781 0.074668
0.602768 -0.071210 0.042362
0.563060 0.005799 0.001650
0.613146 -0.023750 0.049912
0.584149 -0.072070 0.022913
0.597706 -0.012821 0.015583
0.540074 -0.019483 0.049538
0.608334 0.042222 0.044938
0.579714 -0.014363 0.072860
0.596121 -0.033357 0.012485
0.546828 0.029555 0.004638
0.615512 -0.032025 0.033196
0.547612 0.022436 0.078816
0.612044 0.020253 0.045206
0.567828 0.028470 0.085432
0.559369 -0.050167 0.015920
0.546818 0.002625 0.071851
0.532874 0.006571 0.058501
0.587795 0.051347 0.018032
0.605459 0.041469 0.036776
0.603654 -0.018789 0.063434
0.551790 0.073638 0.015988
0.573929 -0.058528 0.046720
0.563813 0.000103 0.077405
0.550217 -0.019497 0.062080
0.605561 0.055032 0.061140
0.565886 -0.000332 0.077544
0.544151 -0.027151 0.013116
0.593474 0.074442 0.038542
0.540399 0.033094 0.076181
0.606711 0.002929 0.067041
0.596215 0.073103 0.043467
0.589993 -0.054810 0.010504
0.616804 -0.068619 0.032719
0.600168 0.059884 0.070116
0.559142 0.052049 0.084660
0.546163 0.016812 0.076499
0.601559 0.003155 0.021363
0.541922 0.090675 0.056426
0.594000 -0.056307 0.011247
0.526579 0.049924 0.033217
0.604520 0.054406 0.042928
0.527083 0.015777 0.050760
0.543299 -0.009843 0.062047
0.534121 0.059398 0.023053
0.550669 -0.003058 0.002418
0.558314 -0.033314 0.006739
0.578689 0.064862 0.015789
0.615485 -0.028049 0.042083
0.604555 0.056060 0.063959
0.547102 0.073300 0.074745
0.540621 0.067675 0.019930
0.542913 0.036834 0.007355
0.591792 -0.074766 0.025067
0.552254 -0.024470 0.060345
0.600367 -0.032570 0.061841
0.539241 0.088601 0.044221
0.604171 -0.074198 0.036066
0.549977 0.039228 0.082028
0.611621 0.029489 0.058183
0.595084 -0.048328 0.057991
0.613047 0.002746 0.043028
0.560284 0.099446 0.048316
0.612628 -0.008051 0.038248
0.526980 0.008112 0.037295
0.577432 -0.012491 0.073623
0.560500 0.031393 0.003563
0.537316 0.068707 0.023927
0.549064 0.096783 0.046945
0.537830 0.015496 0.008410
0.604865 0.022873 0.029785
0.547176 0.059864 0.078484
0.545089 0.043174 0.079441
0.534431 0.058752 0.022292
0.595779 -0.012500 0.070123
0.570820 -0.058821 0.043596
0.600859 -0.015604 0.017851
0.618426 -0.066252 0.031049
0.566325 0.092325 0.067303
0.596861 -0.041476 0.012283
0.582836 0.065941 0.018974
0.563435 0.099279 0.048410
0.549244 0.043457 0.081573
0.601549 0.055597 0.036612
0.586164 0.045411 0.083701
0.601748 -0.053030 0.054522
0.548657 -0.037383 0.042864
0.607286 0.051404 0.055117
0.543690 -0.008738 0.063192
0.554994 0.007867 0.077852
0.568351 -0.026114 0.067060
0.569268 -0.010486 0.001954
0.613575 0.000358 0.045723
0.580203 -0.060968 0.048007
0.532505 0.015256 0.062868
0.575058 -0.026814 0.004067
0.562351 -0.056539 0.020535
0.601643 0.052566 0.034899
0.589965 -0.032577 0.065059
0.550189 -0.040001 0.018081
0.555025 -0.024150 0.004722
0.581027 0.090873 0.045469
0.593618 0.079344 0.052794
0.554794 -0.005957 0.072270
0.525993 0.025639 0.052910
0.601428 -0.063958 0.048985
0.575376 -0.052738 0.053107
0.563296 0.038165 0.086090
0.549180 -0.032470 0.050633
0.554415 0.029635 0.003301
0.535238 0.072504 0.063139
0.532671 0.051227 0.068293
0.569931 0.068247 0.081873
0.587296 -0.032907 0.065281
0.562240 0.097055 0.039828
0.613735 -0.011293 0.046823
0.585846 0.074288 0.026732
0.569470 0.021058 0.084105
0.549178 0.063992 0.078678
0.587092 0.084890 0.043285
0.560996 0.096446 0.062287
0.561517 -0.002896 0.001416
0.603909 -0.040560 0.057734
0.566162 0.090146 0.029283
0.595153 0.076037 0.060705
0.557696 0.091970 0.068209
0.561155 0.021053 0.083173
0.546774 0.056384 0.078858
0.580872 0.021638 0.007305
0.581926 0.088377 0.040232
0.581408 -0.047129 0.008265
0.528112 0.049508 0.028225
0.546210 -0.036300 0.024309
0.593743 -0.052656 0.056225
0.604526 -0.021925 0.061945
0.529704 -0.000839 0.038642
0.605401 -0.056826 0.051802
0.543133 -0.014079 0.058912
0.604178 0.057693 0.045696
0.575671 -0.019951 0.070743
0.530101 0.003411 0.020841
0.570267 0.002497 0.002218
0.572537 -0.009096 0.074816
0.558052 0.090501 0.028718
0.588525 -0.036256 0.063822
0.553914 -0.013694 0.002830
0.603848 0.058655 0.062790
0.544890 -0.033010 0.040617
0.567999 -0.012113 0.001895
0.555274 0.011995 0.001961
0.571496 0.097160 0.049572
0.587385 0.072463 0.027021
0.563140 -0.042687 0.008948
0.575692 0.068476 0.081273
0.595818 0.064324 0.072699
0.609601 -0.019568 0.027479
0.585189 0.017940 0.009471
0.608041 0.015883 0.068209
0.575741 0.082261 0.024843
0.533811 0.018072 0.065890
0.555752 -0.017306 0.003057
0.527382 0.015072 0.024682
0.565087 0.093056 0.066666
0.584538 -0.034400 0.064849
0.603841 0.060629 0.049887
0.586073 -0.068670 0.041668
0.575871 0.019330 0.004957
0.531602 0.062064 0.062848
0.540575 0.061948 0.017369
0.591678 0.011902 0.079255
0.563885 0.073235 0.014800
0.594241 0.077763 0.059280
0.583262 0.083775 0.034037
0.539456 0.024296 0.007898
0.525607 0.015505 0.033125
0.538111 0.050477 0.074042
0.608346 0.011353 0.067153
0.592554 -0.023447 0.011153
0.525460 0.035253 0.053159
0.576496 -0.067201 0.019778
0.612119 -0.072230 0.033385
0.560651 -0.010873 0.072232
0.577106 -0.057531 0.049797
0.598667 0.058185 0.032980
0.570095 -0.052015 0.050748
0.589169 0.015348 0.080811
0.604585 0.055712 0.064279
0.538287 0.075280 0.026777
0.604482 -0.059920 0.050704
0.536458 -0.013719 0.047488
0.579602 0.087640 0.066949
0.596095 -0.038659 0.012096
0.570114 -0.058335 0.043560
0.598216 0.072468 0.051725
0.557642 -0.037330 0.008626
0.550530 0.087646 0.027339
0.612906 -0.016256 0.035925
0.587784 -0.028428 0.008297
0.534503 -0.011164 0.018571
0.605661 0.012618 0.028726
0.528083 0.011521 0.050432
0.608611 0.022728 0.036557
0.606339 -0.037656 0.056940
0.576706 0.094404 0.048526
0.593282 0.067017 0.073600
0.526709 0.019795 0.025575
0.567006 -0.036284 0.061031
0.601053 -0.060225 0.013394
0.556433 0.072453 0.079086
0.583904 -0.069969 0.037113
0.526424 0.015791 0.027849
0.580776 -0.036634 0.063818
0.566124 0.046694 0.006673
0.580482 0.088713 0.064191
0.527060 0.012402 0.047309
0.587313 0.012913 0.010364
0.588026 0.038921 0.083494
0.614383 -0.019945 0.041149
0.595157 0.005826 0.015491
0.560052 0.004159 0.001505
0.571122 -0.013937 0.002330
0.577484 -0.044128 0.007438
0.585026 -0.065393 0.015088
0.601652 0.029965 0.075677
0.620093 -0.059669 0.037381
0.538168 0.073128 0.067103
0.563804 0.094945 0.064327
0.526278 0.038451 0.056067
0.582840 0.079133 0.027811
0.599376 0.069002 0.046401
0.617177 -0.065165 0.039748
0.570381 0.043282 0.006862
0.595379 0.044491 0.079623
0.555946 -0.048452 0.019453
0.555740 0.078706 0.018047
0.527444 0.058202 0.037675
0.529935 -0.000892 0.026543
0.569710 0.042261 0.086510
0.597679 -0.006266 0.016298
0.609904 0.027427 0.064911
0.606247 0.032483 0.034883
0.597278 -0.045275 0.012209
0.563107 -0.057676 0.031924
0.595241 0.073681 0.041627
0.597559 0.073404 0.050745
0.530099 0.040297 0.064892
0.548221 0.069889 0.015698
0.579695 -0.011883 0.073772
0.616468 -0.056991 0.044756
0.619563 -0.047907 0.034560
0.549342 -0.005051 0.002872
0.612067 -0.015096 0.053346
0.593165 0.079266 0.048076
0.547488 0.016474 0.003330
0.572297 0.086196 0.026974
0.607285 -0.046559 0.017458
0.575995 0.038146 0.086097
0.529262 0.010331 0.053027
0.597169 0.039845 0.023606
0.583772 0.008746 0.007657
0.567264 0.094629 0.036917
0.603690 0.054252 0.040408
0.528466 0.041734 0.023575
0.577548 -0.067917 0.033327
0.598002 -0.000996 0.072788
0.546293 -0.006570 0.066847
0.556425 0.092797 0.032010
0.592111 0.049014 0.080880
0.560408 -0.020430 0.002943
0.587987 0.076864 0.071742
0.533779 0.066739 0.064304
0.564631 -0.054746 0.042436
0.610053 -0.045537 0.052572
0.613093 -0.021628 0.049998
0.548313 -0.036957 0.017404
0.552329 -0.043868 0.038876
0.601846 -0.057519 0.052531
0.619826 -0.049401 0.034153
0.578291 0.025587 0.084659
0.618089 -0.057397 0.024305
0.619386 -0.052638 0.028934
0.568178 0.090869 0.068611
0.548910 0.075235 0.075033
0.563910 0.098599 0.044908
0.598576 0.059913 0.033940
0.583675 0.082156 0.070645
0.564626 0.054684 0.008285
0.541624 0.072255 0.071191
0.533944 0.073905 0.059435
0.610358 0.034295 0.046759
0.584964 0.072804 0.024622
0.591928 -0.068944 0.016895
0.603811 0.027810 0.073643
0.526309 0.013324 0.030304
0.562063 0.097488 0.040818
0.610314 0.031992 0.044946
0.609904 -0.026767 0.025439
0.526154 0.052714 0.049753
0.534102 0.010862 0.063198
0.592861 -0.036901 0.062923
0.536832 0.084191 0.039896
0.541811 0.059803 0.015486
0.592730 -0.027054 0.011007
0.531584 0.038977 0.067171
0.547127 -0.038037 0.032468
0.576584 -0.018359 0.071405
0.612606 -0.053327 0.049105
0.530159 0.036363 0.064593
0.578311 -0.057190 0.011733
0.540919 0.044354 0.010362
0.528476 0.009514 0.049779
0.564929 0.098130 0.043872
0.615757 -0.043429 0.046386
0.551244 -0.028744 0.056308
0.525084 0.044763 0.036342
0.548180 0.015772 0.077313
0.612593 -0.039508 0.050802
0.609868 -0.040262 0.021078
0.572432 0.015229 0.003561
0.590762 0.015883 0.013287
0.609452 -0.043896 0.053341
0.563172 0.025231 0.003072
0.575908 -0.002287 0.003406
0.524057 0.029975 0.044498
0.573070 0.094703 0.059416
0.552795 -0.045877 0.025225
0.574367 -0.016553 0.072030
0.537056 0.050633 0.015600
0.563928 0.087798 0.025825
0.586140 -0.070622 0.037921
0.616966 -0.034964 0.037810
0.537694 0.016535 0.008626
0.569514 0.093138 0.065019
0.531434 0.065043 0.060518
0.558239 0.045318 0.005861
0.595214 -0.025569 0.012570
0.554848 0.003812 0.076372
0.557978 0.087461 0.025187
0.598255 0.039468 0.024774
0.597909 -0.041827 0.059831
0.532682 0.015212 0.014109
0.528245 0.048926 0.027542
0.570585 0.028117 0.085463
0.527882 0.061605 0.039885
0.609026 0.044720 0.056403
0.573279 0.093970 0.060911
0.532014 0.020391 0.064109
0.586788 0.073678 0.027303
0.560183 0.046654 0.006136
0.591237 -0.039594 0.062166
0.609512 -0.040423 0.020726
0.613895 -0.020377 0.036947
0.541260 0.090279 0.055467
0.587903 -0.069731 0.041076
0.527051 0.022808 0.055023
0.574034 -0.031597 0.065507
0.560968 -0.009336 0.073005
0.534717 -0.015100 0.025866
0.565894 -0.012460 0.072771
0.539057 0.046141 0.075301
0.538309 0.022215 0.072155
0.611796 -0.069199 0.041380
0.594453 0.076194 0.044243
0.572744 0.091089 0.034271
0.581821 -0.044612 0.060029
0.552966 0.007464 0.001956
0.612475 -0.026548 0.029500
0.531718 0.060869 0.063710
0.524013 0.037054 0.042533
0.546000 -0.036278 0.033332
0.542285 0.090732 0.041036
0.543838 0.091448 0.039526
0.578193 0.090435 0.063295
0.590347 0.080924 0.063419
0.606198 0.015678 0.030280
0.537241 0.062920 0.070584
0.560298 0.016577 0.002174
0.569859 -0.027219 0.003748
0.613660 0.003146 0.049462
0.607975 0.026303 0.068551
0.615486 -0.027732 0.037935
0.591852 -0.032800 0.064627
0.545501 0.089710 0.033768
0.608047 0.048104 0.058241
0.528672 0.006873 0.023937
0.535873 0.082896 0.053812
0.542430 0.084226 0.029750
0.565227 -0.015116 0.071505
0.574771 -0.052282 0.053187
0.533830 -0.002636 0.014310
0.552972 0.066916 0.079662
0.604997 -0.025387 0.060744
0.601411 0.029531 0.075891
0.564449 0.087031 0.025073
0.539125 0.054244 0.015279
0.549269 0.086969 0.027250
0.569027 0.093003 0.035021
0.591034 -0.021483 0.068804
0.528205 0.017712 0.055497
0.592235 0.045622 0.020198
0.526117 0.027807 0.054082
0.556027 0.017061 0.080935
0.565230 0.013542 0.002250
0.611712 -0.002968 0.057383
0.527546 0.029164 0.022849
0.589672 -0.048584 0.058393
0.578531 -0.033273 0.065214
0.588467 -0.058223 0.052890
0.540618 -0.015311 0.009999
0.574121 0.007613 0.080593
0.554327 0.059005 0.082032
0.550547 -0.002083 0.071949
0.570666 -0.047285 0.008941
0.596049 -0.035353 0.012313
0.565672 0.010415 0.081058
0.532380 0.020464 0.064682
0.587424 0.023114 0.011811
0.617151 -0.064897 0.024847
0.552237 0.030928 0.082460
0.607567 0.048959 0.049061
0.540707 0.088316 0.058305
0.530645 0.006978 0.053896
0.608027 0.048330 0.051524
0.574040 0.057197 0.011086
0.586776 -0.006157 0.008651
0.578104 0.050180 0.010968
0.561009 0.062290 0.082981
0.524816 0.044718 0.038634
0.577819 0.005124 0.004449
0.614437 -0.021180 0.039481
0.563539 -0.031950 0.062243
0.525927 0.016261 0.029986
0.604921 0.052923 0.042717
0.566283 0.095222 0.063097
0.544190 0.093520 0.053832
0.536390 0.071479 0.026730
0.541518 0.042180 0.077343
0.603685 0.053980 0.068139
0.536613 0.002312 0.009347
0.527666 0.061485 0.048178
0.576452 -0.009790 0.074640
0.528389 0.033643 0.021571
0.526232 0.011428 0.034946
0.607996 0.041388 0.065134
0.577341 0.086459 0.030974
0.552455 0.054355 0.082047
0.580002 -0.042299 0.007128
0.611622 -0.039466 0.051931
0.612583 0.023591 0.054760
0.547810 0.069965 0.076320
0.594392 -0.074929 0.032916
0.549818 0.088909 0.029217
0.593151 -0.037369 0.062691
0.601266 0.066727 0.051091
0.557185 0.020226 0.082054
0.599489 -0.057134 0.012581
0.588912 -0.054395 0.010324
0.591254 0.016469 0.080396
0.576883 0.031617 0.085600
0.601280 0.020048 0.075540
0.529221 0.002656 0.043723
0.537515 -0.020077 0.040175
0.551875 0.004693 0.075474
0.606061 0.016694 0.070702
0.562455 -0.045531 0.051254
0.587673 0.038393 0.083620
0.619029 -0.049042 0.040523
0.587884 -0.021377 0.008593
0.579583 0.077278 0.076663
0.583987 0.036476 0.084670
0.595545 -0.016098 0.013669
0.577474 0.086507 0.031169
0.527570 0.052992 0.032121
0.594272 0.044980 0.080242
0.539505 -0.001303 0.063354
0.604045 -0.027545 0.060989
0.551866 0.017746 0.002566
0.602204 -0.040116 0.058722
0.549162 -0.011477 0.066163
0.559126 0.024205 0.002728
0.599912 -0.070312 0.018412
0.529815 0.067687 0.052707
0.538096 -0.015004 0.013224
0.574450 -0.021792 0.069926
0.562764 0.091608 0.068718
0.555015 -0.004180 0.073168
0.564003 0.091429 0.068791
0.559609 -0.028085 0.062697
0.613668 -0.027822 0.031223
0.541910 -0.013943 0.008223
0.611886 -0.029092 0.052326
0.603693 0.060787 0.049253
0.594834 0.051596 0.024663
0.536103 0.083594 0.053189
0.585611 0.054154 0.017086
0.553403 -0.046924 0.030641
0.541192 0.075603 0.023769
0.566636 0.064044 0.011379
0.602799 -0.015969 0.064837
0.573247 -0.027975 0.004033
0.617582 -0.043981 0.030044
0.541101 0.066793 0.072793
0.553391 -0.044477 0.040520
0.589757 0.068526 0.075696
0.570949 -0.063542 0.019358
0.610054 -0.030961 0.024200
0.602375 0.055589 0.069540
0.547675 0.074374 0.074680
0.588848 0.084625 0.056711
0.607532 0.046365 0.063432
0.555138 0.007614 0.001791
0.617169 -0.052285 0.044534
0.590579 -0.015080 0.010559
0.527130 0.044817 0.028081
0.601488 0.032841 0.075757
0.588102 -0.073943 0.027710
0.525285 0.049512 0.042199
0.535374 0.024240 0.069576
0.606479 -0.029924 0.020543
0.570677 0.024102 0.004098
0.540316 -0.027066 0.032883
0.596173 -0.046573 0.011651
0.612947 -0.024197 0.031651
0.538394 -0.003414 0.060425
0.557996 0.048798 0.084719
0.558589 0.060004 0.083066
0.618050 -0.044897 0.041897
0.589126 -0.063850 0.013724
0.567971 0.040166 0.005800
0.573713 0.092353 0.063776
0.597836 0.072278 0.047916
0.560385 0.007318 0.001636
0.568744 -0.033209 0.004992
0.599837 0.055679 0.033472
0.531493 0.001345 0.017823
0.587703 -0.025101 0.008338
0.553209 -0.016995 0.065696
0.540777 0.060946 0.074116
0.558734 -0.043305 0.011180
0.599974 0.069317 0.051610
0.619736 -0.062519 0.029869
0.612537 0.014778 0.058780
0.594669 -0.052239 0.011040
0.551407 0.095589 0.060653
0.581998 0.090732 0.054289
0.590493 0.067539 0.027195
0.577311 0.013450 0.004899
0.588357 0.040580 0.015799
0.573143 0.070160 0.015543
0.536950 0.069263 0.024680
0.560230 0.038165 0.004536
0.599915 0.045835 0.075937
0.563096 0.091783 0.068500
0.527889 0.045095 0.060197
0.543957 0.093115 0.054831
0.600162 0.069026 0.055309
0.602903 0.021712 0.026585
0.587964 0.085093 0.046850
0.599330 0.065268 0.040242
0.537733 0.003783 0.064297
0.603407 -0.015798 0.064400
0.569482 -0.037854 0.061000
0.544777 -0.028252 0.048464
0.538942 0.051300 0.014226
0.524582 0.035915 0.033666
0.605464 -0.005490 0.065593
0.605066 0.042875 0.036608
0.586333 -0.064344 0.047263
0.537074 0.012303 0.008817
0.584070 -0.060637 0.049989
0.597060 0.029214 0.021049
0.536263 0.059400 0.020409
0.575688 0.027808 0.005912
0.531648 0.075198 0.043080
0.576111 0.053791 0.084728
0.560532 0.011632 0.001866
0.552024 0.072480 0.077548
0.568009 -0.042856 0.007826
0.618308 -0.064980 0.037585
0.527558 0.017184 0.053345
0.595955 -0.023722 0.013185
0.609827 0.002445 0.062745
0.590667 -0.058405 0.053010
0.584348 0.087030 0.041954
0.583007 0.083337 0.033059
0.602421 -0.020705 0.018458
0.527496 0.006093 0.034490
0.545000 -0.025083 0.052314
0.598534 -0.001372 0.072358
0.584022 -0.015916 0.006679
0.600288 0.068734 0.055791
0.543606 0.037398 0.078753
0.593517 0.006053 0.077083
0.611320 -0.035475 0.052656
0.590992 0.051850 0.020867
0.562313 0.096685 0.061668
0.612797 -0.011715 0.051916
0.542633 -0.027959 0.043818
0.549927 -0.042048 0.032633
0.562137 -0.051679 0.014605
0.538922 0.021220 0.008030
0.600290 -0.027451 0.063374
0.595858 0.056826 0.076534
0.609551 0.012497 0.065558
0.606350 -0.056075 0.015230
0.583279 0.049295 0.084051
0.586355 0.060413 0.080720
0.559936 -0.054961 0.028233
0.541896 0.005654 0.005119
0.601021 0.049757 0.032337
0.603513 0.048180 0.036089
0.585708 0.087246 0.046671
0.553732 0.009159 0.077809
0.532498 0.031538 0.067406
0.572035 0.039238 0.086439
0.529853 0.025045 0.061976
0.608854 0.024771 0.037696
0.536915 -0.009714 0.052843
0.608938 -0.048818 0.052663
0.527443 0.011566 0.048074
0.598445 -0.063527 0.049521
0.553881 -0.046379 0.037012
0.598833 -0.064647 0.014352
0.585976 0.034523 0.084103
0.573005 0.091349 0.034935
0.561772 -0.033418 0.005915
0.530281 0.016553 0.059590
0.545079 0.004909 0.071669
0.559412 0.086640 0.072910
0.610410 -0.004880 0.033354
0.583688 0.021562 0.008934
0.612505 -0.014368 0.052338
0.531131 0.073433 0.041677
0.532259 0.022681 0.065165
0.551943 0.096141 0.039913
0.534363 0.066728 0.065303
0.550445 0.047275 0.007288
0.610869 -0.069835 0.041236
0.548391 0.071015 0.016125
0.558022 -0.050114 0.017828
0.554349 0.084811 0.023150
0.604779 -0.022112 0.061687
0.593996 0.046195 0.022034
0.608664 -0.004083 0.062331
0.595459 0.068982 0.035936
0.533596 0.077962 0.038586
0.589478 0.027059 0.082526
0.537050 0.074952 0.064440
0.548867 -0.037708 0.017339
0.575582 0.065363 0.082198
0.571237 0.008176 0.080747
0.532493 -0.007726 0.041471
0.568047 -0.005336 0.075907
0.568046 0.096919 0.058636
0.565096 -0.002631 0.076582
0.569670 -0.058703 0.042515
0.565455 0.087515 0.072419
0.602494 -0.057534 0.052363
0.588665 -0.016017 0.071218
0.536816 -0.004974 0.010556
0.529589 0.000135 0.040613
0.553091 0.025754 0.081953
0.597362 0.073232 0.058968
0.591834 0.007533 0.078106
0.617606 -0.038544 0.035514
0.571552 0.017102 0.083221
0.605907 0.002157 0.067668
0.544880 0.094365 0.048056
0.577003 -0.006873 0.075688
0.584138 0.085083 0.066358
0.551545 0.097117 0.056515
0.543201 0.015692 0.004844
0.527621 0.017598 0.053816
0.568437 0.035917 0.086343
0.563288 0.046201 0.086020
0.613182 0.010379 0.055648
0.596704 -0.064221 0.013887
0.546911 -0.024411 0.008534
0.547423 0.096035 0.051580
0.551809 0.058651 0.081079
0.532406 0.074219 0.054708
0.573687 -0.002355 0.002774
0.595513 -0.004380 0.014758
0.557691 -0.021415 0.065704
0.601874 -0.033189 0.060888
0.548987 -0.031430 0.051459
0.593392 -0.072758 0.020500
0.558339 0.099400 0.050265
0.593235 -0.031397 0.064814
0.604718 0.056745 0.062267
0.574847 -0.008390 0.075159
0.604595 0.027744 0.030542
0.574896 -0.062419 0.042312
0.586523 0.078240 0.031393
0.578587 -0.008128 0.004237
0.548384 0.054583 0.010044
0.592302 0.080943 0.055725
0.609571 -0.007402 0.059963
0.542860 -0.014495 0.058277
0.584909 0.083522 0.036128
0.556190 0.084944 0.073335
0.575355 -0.047742 0.056733
0.616464 -0.053247 0.045393
0.532499 0.039545 0.016513
0.543044 0.059271 0.014402
0.551398 0.030446 0.003692
0.612363 -0.048326 0.050196
0.581585 -0.018517 0.005479
0.568367 0.093134 0.034869
0.562419 -0.047787 0.048915
0.603058 0.061382 0.046936
0.526398 0.010611 0.035383
0.576089 0.032948 0.085807
0.551916 0.044466 0.006266
0.564578 -0.021319 0.068446
0.538702 -0.020815 0.043857
0.594964 0.074737 0.063912
0.602535 -0.044973 0.057098
0.549978 -0.036722 0.014059
0.529576 0.019959 0.019082
0.585441 0.059281 0.018520
0.591669 0.071250 0.072401
0.560441 -0.002179 0.075838
0.555935 -0.040723 0.049963
0.589431 0.062858 0.078432
0.615535 -0.054189 0.021623
0.617061 -0.035745 0.036340
0.615645 -0.031348 0.034237
0.572331 0.008468 0.080855
0.529069 0.046170 0.062865
0.613568 -0.006892 0.049247
0.544828 0.063819 0.015036
0.587184 -0.044913 0.008669
0.577449 -0.056735 0.011654
0.546404 -0.020574 0.007283
0.525317 0.036359 0.052645
0.573459 0.078551 0.077621
0.556795 -0.046603 0.015315
0.564923 0.046233 0.006413
0.531537 0.068723 0.057935
0.593599 0.056071 0.024992
0.523905 0.034348 0.041300
0.602424 0.034174 0.028879
0.563519 -0.043103 0.008998
0.553644 -0.031807 0.055983
0.555740 0.085787 0.023778
0.580874 -0.030874 0.066366
0.528009 0.050504 0.059199
0.604172 0.054601 0.042033
0.607277 -0.058040 0.015584
0.545739 0.093030 0.040002
0.604238 0.049566 0.038425
0.533502 -0.005595 0.048766
0.573062 0.006597 0.080292
0.599494 -0.062011 0.013433
0.526652 0.017253 0.026417
0.547665 0.046880 0.080536
0.604726 0.018534 0.028554
0.573441 -0.065976 0.030980
0.543492 -0.030770 0.040721
0.606093 0.043217 0.039052
0.600663 -0.073588 0.038702
0.597081 0.000804 0.073881
0.545801 0.052012 0.010265
0.553223 -0.020497 0.004296
0.546488 -0.026930 0.052609
0.541690 0.033444 0.077208
0.600074 -0.065781 0.047768
0.575121 0.087479 0.030477
0.557033 0.060608 0.082541
0.552564 -0.042512 0.042479
0.561799 -0.028510 0.004519
0.550611 -0.042483 0.023216
0.567778 -0.032676 0.063452
0.619990 -0.056886 0.038708
0.582184 -0.067569 0.017350
0.607849 -0.006024 0.028400
0.612982 -0.011070 0.038511
0.525057 0.040960 0.033532
0.525220 0.016751 0.040842
0.600301 0.066571 0.045139
0.575402 -0.067806 0.023619
0.582855 0.090224 0.051333
0.550644 0.062944 0.011962
0.554898 -0.029150 0.006345
0.525767 0.014405 0.041989
0.582763 -0.022346 0.069766
0.585633 0.078474 0.030459
0.537026 0.053785 0.072596
0.569368 0.058347 0.084374
0.567962 -0.045444 0.008768
0.619662 -0.048416 0.036725
0.556533 -0.014078 0.002442
0.590080 -0.058833 0.011534
0.564089 0.046302 0.086105
0.539431 -0.022874 0.042580
0.570043 -0.048630 0.053682
0.525931 0.035790 0.054852
0.561898 -0.006876 0.001482
0.580307 -0.067482 0.038757
0.594388 0.066949 0.032214
0.555840 -0.004157 0.073520
0.600031 0.008023 0.074264
0.609391 0.042698 0.057908
0.601621 0.018715 0.024230
0.553680 0.098445 0.052492
0.541980 0.085413 0.063680
0.600851 -0.000989 0.071004
0.600644 0.068083 0.052079
0.590839 0.020468 0.081236
0.530563 0.012481 0.017456
0.570581 0.027461 0.085356
0.545926 0.041855 0.079977
0.576565 0.093872 0.056441
0.588313 0.084984 0.048000
0.573094 -0.034561 0.005202
0.538753 0.017952 0.071399
0.541555 -0.027868 0.039786
0.613044 0.001127 0.054475
0.614829 -0.062978 0.020845
0.533921 -0.013290 0.027034
0.562585 0.005056 0.078936
0.588791 0.021781 0.012648
0.605326 -0.025432 0.060454
0.609118 0.041780 0.047944
0.537613 0.055099 0.017003
0.578856 -0.041940 0.061009
0.599356 0.070160 0.057637
0.573959 -0.039112 0.061588
0.574324 0.039752 0.007313
0.609578 0.002128 0.063042
0.548818 0.032836 0.081257
0.535069 0.020591 0.011579
0.543812 -0.012537 0.060764
0.586525 -0.029030 0.066891
0.596856 -0.060929 0.051361
0.611051 0.034355 0.051396
0.538439 0.043938 0.011942
0.562501 -0.033511 0.060752
0.538487 0.071752 0.024267
0.611243 -0.065115 0.045329
0.571820 0.014338 0.003336
0.579242 0.083492 0.072302
0.544725 -0.014833 0.006466
0.580154 0.059976 0.014873
0.601629 0.060941 0.066402
0.596722 0.027259 0.020317
0.524177 0.028256 0.044908
0.538018 0.018629 0.070902
0.600649 -0.067487 0.046357
0.539913 -0.011396 0.009166
0.539689 0.018056 0.007156
0.558596 0.035970 0.004126
0.536726 -0.009720 0.012444
0.554837 0.030349 0.083270
0.568255 0.033028 0.086067
0.538688 0.081659 0.062020
0.569286 0.071042 0.014755
0.589347 0.013157 0.080265
0.606217 -0.060005 0.050138
0.538079 0.073728 0.025962
0.584828 -0.061609 0.049374
0.555170 0.016970 0.002241
0.543936 0.093104 0.054803
0.614963 -0.026005 0.036685
0.612011 -0.035070 0.025189
0.594352 -0.000977 0.014178
0.582336 0.020871 0.083305
0.609556 -0.005741 0.060515
0.562460 0.049398 0.006826
0.606404 -0.067761 0.018185
0.595288 0.071703 0.067318
0.606933 0.037453 0.068642
0.542398 -0.015639 0.056838
0.561681 0.064960 0.082409
0.602172 0.017968 0.024794
0.591253 -0.070404 0.018146
0.612885 0.008251 0.056939
0.524188 0.039329 0.044341
0.603728 0.057208 0.065179
0.545813 -0.036146 0.030852
0.578413 0.048664 0.010767
0.528840 0.045223 0.062452
0.556098 0.028283 0.083354
0.587542 -0.032540 0.065399
0.534643 0.078642 0.056343
0.581378 -0.009668 0.005448
0.598377 0.071850 0.057748
0.611683 -0.047326 0.050933
0.567962 -0.043103 0.056859
0.530601 0.047406 0.022109
0.592595 -0.057852 0.011381
0.530964 0.064162 0.031291
0.608891 0.009162 0.033585
0.536517 0.060682 0.020748
0.553235 0.082008 0.021032
0.588889 0.001855 0.077239
0.547448 0.052387 0.009709
0.578518 0.063586 0.015192
0.529232 0.029067 0.061805
0.596631 -0.054144 0.055134
0.558521 0.089653 0.070481
0.562649 -0.057791 0.024164
0.584884 -0.032070 0.007071
0.559874 -0.020058 0.002931
0.606649 0.020012 0.070307
0.590422 0.077457 0.036663
0.604300 -0.009884 0.065308
0.603989 -0.013351 0.021473
0.550836 0.049895 0.081838
0.566412 -0.060442 0.020342
0.610984 -0.016117 0.031222
0.527128 0.008181 0.040307
0.596643 0.030135 0.020804
0.588176 -0.010344 0.009323
0.530432 -0.002237 0.025584
0.580936 -0.059399 0.049893
0.574771 -0.018535 0.071270
0.544475 -0.033983 0.027028
0.536608 -0.015324 0.045706
0.600131 0.066976 0.045260
0.613307 0.009504 0.054726
0.570023 -0.049886 0.010093
0.607518 -0.026411 0.022561
0.547645 0.046964 0.007995
0.537336 -0.002758 0.059345
0.594104 0.031002 0.018527
0.561307 -0.045047 0.010778
0.526237 0.054940 0.042515
0.561300 0.083557 0.021416
0.533159 0.062650 0.026203
0.560723 -0.003061 0.001422
0.583449 -0.005500 0.006677
0.533978 -0.013714 0.030570
0.537296 0.012145 0.067892
0.572285 0.096850 0.050625
0.567781 -0.029264 0.065308
0.544960 0.093068 0.041610
0.587012 -0.007400 0.074517
0.574645 -0.030576 0.066078
0.529825 0.069664 0.042003
0.555323 0.000266 0.001650
0.611501 0.026008 0.046086
0.528050 0.063428 0.047058
0.543049 0.047468 0.010107
0.610993 -0.041565 0.021752
0.538971 0.085266 0.058881
0.599560 -0.031819 0.062447
0.527480 0.059922 0.049657
0.549815 -0.033768 0.050084
0.590622 0.053817 0.080668
0.589855 -0.067936 0.016279
0.582648 -0.060020 0.012414
0.541982 -0.018458 0.053990
0.529695 0.025873 0.061912
0.577285 0.064546 0.082142
0.579427 -0.013017 0.073365
0.570217 -0.008814 0.002037
0.574358 0.041319 0.086265
0.555384 0.030529 0.003370
0.600837 -0.021128 0.016991
0.606744 0.025625 0.070304
0.612167 -0.006159 0.055269
0.577308 0.083080 0.026783
0.527478 0.011037 0.026184
0.602264 0.045526 0.073526
0.592013 0.080814 0.048347
0.530647 -0.001172 0.044357
0.597155 0.046859 0.025715
0.535462 0.081081 0.055530
0.616237 -0.067095 0.039011
0.613235 0.008320 0.045996
0.592788 0.034195 0.017997
0.606079 -0.010529 0.024751
0.571603 -0.046398 0.056188
0.548410 0.086592 0.027329
0.550354 0.008250 0.076030
0.585553 0.019674 0.082529
0.526751 0.032129 0.056942
0.552852 -0.024689 0.060648
0.613401 -0.035310 0.049763
0.528135 0.016803 0.022240
0.591903 0.039975 0.018497
0.617667 -0.038995 0.039521
0.615117 -0.029472 0.044977
0.592758 -0.041351 0.010394
0.565792 -0.056943 0.040342
0.529020 0.064224 0.037403
0.573507 -0.063953 0.037663
0.567990 0.087235 0.072388
0.582989 0.037595 0.011121
0.581148 0.048978 0.084615
0.526079 0.053598 0.040845
0.610552 0.017524 0.064225
0.569984 0.097048 0.056313
0.599113 0.049080 0.029104
