ply
format ascii 1.0
element vertex 1024
property float x
property float y
property float z
end_header
0.607196 0.033954 0.037512
0.557886 0.005041 0.079559
0.605133 -0.037399 0.059403
0.601808 0.042745 0.075828
0.587772 -0.017706 0.010627
0.576671 0.088909 0.035925
0.530246 0.045778 0.023921
0.559470 0.050650 0.085903
0.555884 -0.044452 0.048464
0.553545 0.096625 0.059152
0.599330 -0.040022 0.015354
0.616500 -0.068067 0.039299
0.532034 0.075286 0.047834
0.570973 -0.020133 0.004761
0.581386 -0.051602 0.058053
0.575415 0.003097 0.080746
0.581231 0.039884 0.086369
0.532320 -0.010056 0.026803
0.613422 0.020864 0.052827
0.525144 0.035163 0.032568
0.568019 0.047134 0.087356
0.583571 -0.060814 0.051927
0.549184 0.008544 0.004761
0.526582 0.054221 0.049726
0.542854 0.082757 0.029784
0.593352 -0.075956 0.027497
0.588041 -0.074226 0.033329
0.525300 0.044465 0.037316
0.602451 0.012642 0.074948
0.603196 -0.071796 0.043785
0.561659 0.004530 0.003615
0.613726 -0.024208 0.050242
0.583814 -0.072977 0.025112
0.596891 -0.013806 0.016409
0.540686 -0.020123 0.052738
0.608522 0.041675 0.044534
0.581212 -0.014577 0.074377
0.595244 -0.034387 0.013667
0.545489 0.028287 0.006916
0.615446 -0.032715 0.033563
0.549265 0.022226 0.081096
0.612305 0.019721 0.044963
0.569713 0.028402 0.086810
0.558710 -0.051236 0.018810
0.548252 0.002316 0.074448
0.533773 0.006038 0.061614
0.586895 0.050366 0.018348
0.605325 0.040799 0.036506
0.604769 -0.019078 0.064063
0.550771 0.072539 0.017434
0.574517 -0.059123 0.049116
0.565463 -0.000085 0.079352
0.551323 -0.019934 0.064863
0.606362 0.054707 0.060652
0.567541 -0.000514 0.079414
0.543323 -0.028299 0.016294
0.593322 0.073765 0.038286
0.541921 0.032828 0.078602
0.607903 0.002696 0.067237
0.596262 0.072502 0.043115
0.589106 -0.055882 0.012236
0.616826 -0.069308 0.033551
0.601319 0.059673 0.069768
0.560933 0.051947 0.086054
0.547742 0.016566 0.078918
0.600924 0.002259 0.021804
0.542479 0.090126 0.057991
0.593143 -0.057358 0.012840
0.526340 0.049012 0.035993
0.604594 0.053819 0.042507
0.527649 0.015119 0.053982
0.544381 -0.010298 0.064971
0.533441 0.058359 0.025402
0.549336 -0.004345 0.005005
0.557238 -0.034517 0.009442
0.577666 0.063826 0.016280
0.615762 -0.028613 0.042387
0.605467 0.055772 0.063494
0.548441 0.073025 0.076331
0.539787 0.066606 0.021905
0.541664 0.035595 0.009685
0.591546 -0.075624 0.026995
0.553303 -0.024927 0.063117
0.601462 -0.032888 0.062797
0.539318 0.087872 0.045934
0.604354 -0.074870 0.037480
0.551707 0.039067 0.083973
0.612375 0.029139 0.057815
0.596076 -0.048712 0.059385
0.613272 0.002186 0.042994
0.560476 0.098825 0.049028
0.612695 -0.008678 0.038388
0.527029 0.007263 0.040642
0.578957 -0.012699 0.075205
0.559102 0.030143 0.005268
0.536641 0.067687 0.026016
0.549218 0.096115 0.048147
0.536692 0.014262 0.011244
0.604507 0.022104 0.029807
0.548705 0.059644 0.080254
0.546708 0.042965 0.081529
0.533723 0.057703 0.024638
0.597150 -0.012714 0.070972
0.571285 -0.059467 0.046124
0.600140 -0.016549 0.018588
0.618372 -0.066962 0.031784
0.567294 0.091990 0.067857
0.595999 -0.042507 0.013550
0.581934 0.064960 0.019282
0.563628 0.098667 0.048998
0.550944 0.043288 0.083489
0.601369 0.054913 0.036299
0.587914 0.045361 0.084106
0.602609 -0.053447 0.055718
0.549048 -0.038095 0.045979
0.607855 0.050998 0.054617
0.544813 -0.009176 0.066084
0.556646 0.007662 0.080043
0.569661 -0.026436 0.069204
0.567922 -0.011734 0.003900
0.613915 -0.000161 0.045699
0.580845 -0.061529 0.050185
0.533553 0.014784 0.065870
0.573841 -0.028016 0.006009
0.561893 -0.057534 0.023391
0.601404 0.051859 0.034627
0.591197 -0.032875 0.066429
0.549593 -0.041062 0.021194
0.553843 -0.025391 0.007429
0.581114 0.090262 0.045473
0.594022 0.078869 0.052449
0.556264 -0.006240 0.074669
0.526617 0.025008 0.056035
0.602100 -0.064454 0.050353
0.576201 -0.053239 0.055357
0.565182 0.038095 0.087512
0.549867 -0.033071 0.053650
0.553016 0.028366 0.005274
0.536124 0.072036 0.065223
0.533829 0.050828 0.070775
0.571553 0.068130 0.082609
0.588540 -0.033209 0.066763
0.562097 0.096318 0.040503
0.614154 -0.011795 0.046957
0.585228 0.073424 0.026793
0.571322 0.020976 0.085523
0.550701 0.063780 0.080309
0.587104 0.084263 0.043133
0.561757 0.096026 0.063000
0.560134 -0.004171 0.003565
0.604860 -0.040928 0.058665
0.565614 0.089269 0.029908
0.595883 0.075679 0.060338
0.558709 0.091627 0.069113
0.562976 0.020938 0.084925
0.548329 0.056169 0.080692
0.579636 0.020491 0.008327
0.581809 0.087694 0.040240
0.580415 -0.048254 0.010235
0.527674 0.048528 0.030951
0.545856 -0.037282 0.027523
0.594678 -0.053069 0.057735
0.605590 -0.022233 0.062584
0.529832 -0.001661 0.042005
0.606162 -0.057273 0.052908
0.544102 -0.014579 0.061905
0.604354 0.057144 0.045239
0.577105 -0.020204 0.072504
0.529502 0.002336 0.024145
0.568892 0.001254 0.003940
0.574104 -0.009299 0.076545
0.557487 0.089596 0.029663
0.589719 -0.036575 0.065303
0.552626 -0.014966 0.005436
0.604706 0.058349 0.062318
0.545180 -0.033765 0.043823
0.566657 -0.013364 0.003914
0.553873 0.010712 0.004150
0.571736 0.096584 0.049866
0.586782 0.071607 0.027047
0.562176 -0.043847 0.011587
0.577284 0.068364 0.081775
0.597063 0.064139 0.072460
0.609273 -0.020355 0.027912
0.584047 0.016835 0.010370
0.609240 0.015669 0.068168
0.575031 0.081345 0.025199
0.534970 0.017645 0.068796
0.554482 -0.018570 0.005640
0.526905 0.014044 0.027926
0.566029 0.092708 0.067260
0.585771 -0.034714 0.066463
0.604176 0.060139 0.049399
0.586478 -0.069307 0.043725
0.574552 0.018138 0.006215
0.532511 0.061584 0.065225
0.539655 0.060843 0.019429
0.593345 0.011806 0.079916
0.562809 0.072149 0.015768
0.594909 0.077382 0.058927
0.582910 0.083008 0.034062
0.538270 0.023058 0.010543
0.525468 0.014593 0.036426
0.539498 0.050173 0.076311
0.609516 0.011124 0.067164
0.591597 -0.024506 0.012339
0.526065 0.034623 0.056169
0.576028 -0.068172 0.022218
0.612182 -0.072921 0.034456
0.562129 -0.011142 0.074465
0.577812 -0.058074 0.052049
0.598336 0.057443 0.032749
0.570827 -0.052563 0.053203
0.590890 0.015267 0.081523
0.605511 0.055429 0.063817
0.537706 0.074302 0.028732
0.605209 -0.060385 0.051891
0.536973 -0.014398 0.050754
0.580560 0.087332 0.067036
0.595218 -0.039695 0.013354
0.570578 -0.058984 0.046110
0.598594 0.071990 0.051294
0.556654 -0.038508 0.011411
0.549924 0.086705 0.028628
0.612904 -0.016915 0.036172
0.586731 -0.029539 0.009747
0.533853 -0.012259 0.021906
0.605290 0.011836 0.028862
0.528648 0.010862 0.053675
0.608521 0.022064 0.036425
0.607247 -0.038029 0.057733
0.576908 0.093826 0.048651
0.594557 0.066838 0.073424
0.526255 0.018778 0.028778
0.568106 -0.036694 0.063378
0.600289 -0.061228 0.014757
0.557942 0.072263 0.080306
0.584133 -0.070675 0.039279
0.526073 0.014806 0.031119
0.581977 -0.036972 0.065616
0.564800 0.045500 0.007934
0.581326 0.088368 0.064231
0.527497 0.011695 0.050583
0.586220 0.011826 0.011248
0.589785 0.038873 0.083916
0.614599 -0.020525 0.041383
0.594284 0.004831 0.016156
0.558652 0.002882 0.003614
0.569801 -0.015175 0.004249
0.576452 -0.045274 0.009524
0.584358 -0.066410 0.017165
0.603114 0.029839 0.075686
0.620273 -0.060285 0.037951
0.539209 0.072724 0.069056
0.564648 0.094560 0.064947
0.526990 0.037864 0.058997
0.582253 0.078277 0.027924
0.599551 0.068451 0.045977
0.617470 -0.065754 0.040510
0.569071 0.042102 0.007999
0.596960 0.044405 0.079675
0.555426 -0.049479 0.022453
0.554785 0.077645 0.019262
0.527359 0.057355 0.040296
0.529578 -0.001886 0.029908
0.571595 0.042212 0.087617
0.596873 -0.007241 0.017031
0.610936 0.027169 0.064635
0.606063 0.031789 0.034709
0.596424 -0.046305 0.013513
0.563108 -0.058507 0.034756
0.595214 0.073052 0.041308
0.597896 0.072910 0.050327
0.531156 0.039845 0.067635
0.547204 0.068778 0.017340
0.581223 -0.012084 0.075254
0.616937 -0.057511 0.045427
0.619595 -0.048566 0.034987
0.548033 -0.006334 0.005539
0.612760 -0.015509 0.053594
0.593381 0.078723 0.047755
0.546135 0.015191 0.005767
0.571663 0.085301 0.027411
0.606638 -0.047491 0.018374
0.577870 0.038106 0.087010
0.529934 0.009712 0.056237
0.596519 0.038968 0.023703
0.582587 0.007612 0.008744
0.567008 0.093863 0.037428
0.603664 0.053628 0.040025
0.527864 0.040691 0.026401
0.577624 -0.068692 0.035723
0.599443 -0.001168 0.073383
0.547554 -0.006950 0.069600
0.555987 0.091936 0.032986
0.593732 0.048938 0.080999
0.559139 -0.021684 0.005383
0.589162 0.076645 0.071641
0.534730 0.066285 0.066526
0.565043 -0.055425 0.045155
0.610807 -0.045963 0.053331
0.613671 -0.022085 0.050300
0.547683 -0.038032 0.020549
0.552576 -0.044628 0.041939
0.602641 -0.057964 0.053788
0.619845 -0.050065 0.034591
0.580144 0.025533 0.085658
0.617739 -0.058204 0.024935
0.619207 -0.053377 0.029440
0.569202 0.090557 0.069109
0.550254 0.074969 0.076519
0.563965 0.097938 0.045490
0.598279 0.059184 0.033688
0.584794 0.081911 0.070644
0.563344 0.053509 0.009491
0.542829 0.071917 0.073014
0.534679 0.073382 0.061554
0.610641 0.033779 0.046384
0.584266 0.071908 0.024742
0.591337 -0.069919 0.018743
0.605195 0.027661 0.073598
0.526064 0.012374 0.033610
0.561959 0.096765 0.041493
0.610531 0.031450 0.044607
0.609515 -0.027581 0.025964
0.526571 0.052036 0.052492
0.535175 0.010399 0.066198
0.594018 -0.037222 0.064241
0.536751 0.083395 0.041772
0.540821 0.058674 0.017528
0.591777 -0.028115 0.012237
0.532735 0.038561 0.069870
0.547104 -0.038902 0.035663
0.578038 -0.018601 0.073105
0.613242 -0.053796 0.049875
0.531215 0.035907 0.067389
0.577490 -0.058272 0.013967
0.539771 0.043152 0.012663
0.529020 0.008846 0.053035
0.564943 0.097457 0.044421
0.616252 -0.043929 0.046892
0.552145 -0.029260 0.059185
0.524987 0.043893 0.039248
0.549793 0.015543 0.079665
0.613256 -0.039953 0.051376
0.609344 -0.041137 0.021799
0.571072 0.014009 0.005016
0.589775 0.014846 0.013988
0.610232 -0.044312 0.054100
0.561770 0.023981 0.004757
0.574591 -0.003499 0.004969
0.524332 0.029219 0.047647
0.573710 0.094271 0.059672
0.552501 -0.046830 0.028310
0.575843 -0.016791 0.073793
0.536102 0.049496 0.017963
0.563251 0.086867 0.026576
0.586401 -0.071312 0.040006
0.617092 -0.035584 0.038156
0.536561 0.015303 0.011451
0.570387 0.092777 0.065436
0.532241 0.064529 0.062862
0.556893 0.044093 0.007458
0.594318 -0.026601 0.013679
0.556453 0.003586 0.078627
0.557281 0.086507 0.026182
0.597652 0.038609 0.024831
0.598953 -0.042180 0.061018
0.531777 0.014047 0.017148
0.527781 0.047937 0.030271
0.572469 0.028056 0.086736
0.527875 0.060790 0.042438
0.609666 0.044337 0.055926
0.573981 0.093560 0.061169
0.533097 0.019934 0.067056
0.586194 0.072825 0.027336
0.558842 0.045438 0.007636
0.592372 -0.039930 0.063587
0.608975 -0.041304 0.021464
0.613945 -0.021018 0.037211
0.541781 0.089715 0.057065
0.588286 -0.070371 0.043075
0.527767 0.022210 0.058144
0.575294 -0.031927 0.067502
0.562472 -0.009593 0.075203
0.534372 -0.016090 0.029241
0.567395 -0.012708 0.074816
0.540506 0.045858 0.077593
0.539704 0.021888 0.074817
0.612171 -0.069777 0.042413
0.594524 0.075599 0.043917
0.572388 0.090299 0.034614
0.582894 -0.045000 0.061900
0.551581 0.006175 0.004302
0.612246 -0.027298 0.029915
0.532664 0.060402 0.066098
0.524188 0.036270 0.045586
0.546007 -0.037132 0.036546
0.542225 0.089965 0.042600
0.543715 0.090663 0.041018
0.578998 0.090071 0.063403
0.591174 0.080592 0.063174
0.605879 0.014919 0.030349
0.538453 0.062563 0.072715
0.558888 0.015308 0.004097
0.568635 -0.028438 0.005904
0.614142 0.002679 0.049392
0.609157 0.026092 0.068365
0.615597 -0.028354 0.038238
0.593066 -0.033099 0.065926
0.545151 0.088847 0.035223
0.608751 0.047744 0.057753
0.528188 0.005838 0.027246
0.536354 0.082296 0.055732
0.541938 0.083299 0.031410
0.566685 -0.015384 0.073615
0.575598 -0.052784 0.055456
0.532985 -0.003794 0.017554
0.554522 0.066727 0.081099
0.606022 -0.025710 0.061414
0.602882 0.029409 0.075916
0.563743 0.086091 0.025814
0.538145 0.053107 0.017508
0.548663 0.086023 0.028599
0.568699 0.092214 0.035486
0.592382 -0.021727 0.069972
0.528953 0.017124 0.058643
0.591435 0.044683 0.020414
0.526781 0.027193 0.057170
0.557775 0.016902 0.082951
0.563828 0.012286 0.004018
0.612530 -0.003326 0.057470
0.526954 0.028109 0.025890
0.590685 -0.048976 0.060007
0.579780 -0.033597 0.067053
0.589289 -0.058695 0.054693
0.539633 -0.016512 0.013154
0.575869 0.007494 0.082018
0.555995 0.058854 0.083523
0.551996 -0.002381 0.074463
0.569709 -0.048426 0.011344
0.595171 -0.036386 0.013526
0.567436 0.010281 0.082782
0.533486 0.020017 0.067614
0.586359 0.022047 0.012545
0.616846 -0.065698 0.025620
0.554008 0.030780 0.084431
0.607901 0.048467 0.048589
0.541348 0.087790 0.059951
0.531360 0.006374 0.057097
0.608461 0.047875 0.051040
0.572855 0.056084 0.011876
0.585672 -0.007268 0.009828
0.576932 0.049076 0.011694
0.562700 0.062167 0.084157
0.524811 0.043880 0.041550
0.576520 0.003931 0.005830
0.614591 -0.021784 0.039732
0.564677 -0.032351 0.064666
0.525660 0.015305 0.033267
0.604991 0.052334 0.042301
0.567075 0.094826 0.063615
0.544633 0.092939 0.055268
0.535819 0.070496 0.028815
0.543059 0.041932 0.079590
0.604772 0.053750 0.067735
0.535552 0.001090 0.012415
0.527992 0.060787 0.050734
0.578011 -0.009987 0.076223
0.527731 0.032571 0.024515
0.526178 0.010544 0.038278
0.608997 0.041127 0.064738
0.576863 0.085634 0.031202
0.554139 0.054199 0.083679
0.578950 -0.043444 0.009088
0.612331 -0.039898 0.052542
0.613217 0.023196 0.054440
0.549222 0.069716 0.077923
0.594459 -0.075670 0.034736
0.549285 0.087992 0.030515
0.594300 -0.037692 0.064004
0.601634 0.066248 0.050619
0.558967 0.020085 0.083978
0.598684 -0.058153 0.013964
0.588017 -0.055472 0.012094
0.592954 0.016387 0.081008
0.578757 0.031573 0.086571
0.602766 0.019921 0.075705
0.529543 0.001904 0.047051
0.537755 -0.020857 0.043495
0.553444 0.004447 0.077836
0.607359 0.016510 0.070727
0.563194 -0.046090 0.053923
0.589439 0.038346 0.084064
0.619303 -0.049618 0.040982
0.586823 -0.022484 0.009940
0.580961 0.077108 0.076888
0.585803 0.036436 0.085288
0.594665 -0.017115 0.014630
0.577004 0.085685 0.031390
0.527278 0.052066 0.034815
0.595878 0.044900 0.080331
0.540616 -0.001750 0.066308
0.605087 -0.027867 0.061727
0.550475 0.016462 0.004810
0.603195 -0.040474 0.059713
0.550408 -0.011859 0.068871
0.557717 0.022941 0.004590
0.599380 -0.071245 0.019958
0.530302 0.067058 0.055085
0.537241 -0.016166 0.016474
0.575857 -0.022059 0.071762
0.563794 0.091284 0.069423
0.556516 -0.004450 0.075532
0.565036 0.091109 0.069449
0.560757 -0.028490 0.065223
0.613511 -0.028544 0.031607
0.540848 -0.015167 0.011309
0.612579 -0.029519 0.052780
0.604003 0.060288 0.048769
0.594193 0.050727 0.024687
0.536557 0.082985 0.055090
0.584666 0.053155 0.017450
0.553328 -0.047798 0.033712
0.540487 0.074589 0.025606
0.565449 0.062917 0.012370
0.603962 -0.016241 0.065459
0.572034 -0.029182 0.006064
0.617423 -0.044710 0.030500
0.542386 0.066477 0.074713
0.553705 -0.045211 0.043547
0.591114 0.068369 0.075638
0.570458 -0.064533 0.021969
0.609628 -0.031792 0.024779
0.603514 0.055375 0.069164
0.549008 0.074100 0.076228
0.589397 0.084193 0.056480
0.608450 0.046078 0.062986
0.553744 0.006328 0.004048
0.617615 -0.052807 0.045111
0.589575 -0.016154 0.011707
0.526701 0.043834 0.030912
0.602944 0.032716 0.075733
0.587962 -0.074772 0.029773
0.525409 0.048725 0.045025
0.536662 0.023869 0.072330
0.605906 -0.030815 0.021254
0.569314 0.022884 0.005497
0.540282 -0.027942 0.036195
0.595302 -0.047614 0.013018
0.612797 -0.024916 0.032012
0.539396 -0.003905 0.063456
0.559799 0.048694 0.086205
0.560292 0.059878 0.084372
0.618368 -0.045456 0.042336
0.588395 -0.064877 0.015616
0.566630 0.038965 0.007080
0.574535 0.091985 0.064036
0.598062 0.071745 0.047507
0.558981 0.006043 0.003687
0.567589 -0.034412 0.007277
0.599532 0.054947 0.033229
0.530779 0.000231 0.021102
0.586642 -0.026212 0.009745
0.554449 -0.017374 0.068320
0.542133 0.060649 0.076131
0.557864 -0.044444 0.014003
0.600356 0.068841 0.051153
0.619624 -0.063243 0.030500
0.613358 0.014441 0.058582
0.593792 -0.053292 0.012548
0.552112 0.095123 0.061765
0.582438 0.090249 0.054248
0.589910 0.066694 0.027166
0.576006 0.012261 0.006182
0.587399 0.039570 0.016246
0.572099 0.069107 0.016182
0.536304 0.068252 0.026775
0.558851 0.036927 0.006155
0.601342 0.045708 0.075791
0.564117 0.091457 0.069189
0.528745 0.044570 0.062964
0.544442 0.092548 0.056281
0.600692 0.068604 0.054845
0.602422 0.020892 0.026705
0.588118 0.084519 0.046656
0.599269 0.064630 0.039878
0.538868 0.003345 0.067249
0.604552 -0.016075 0.064995
0.570584 -0.038259 0.063270
0.545368 -0.028896 0.051600
0.537929 0.050147 0.016505
0.524405 0.035006 0.036720
0.606624 -0.005746 0.065959
0.604922 0.042201 0.036334
0.586950 -0.064901 0.049244
0.535962 0.011073 0.011726
0.584786 -0.061160 0.052005
0.596339 0.028301 0.021303
0.535476 0.058328 0.022675
0.574383 0.026628 0.007056
0.531725 0.074436 0.045287
0.577885 0.053731 0.085417
0.559124 0.010360 0.003850
0.553475 0.072258 0.078946
0.566997 -0.044020 0.010273
0.618513 -0.065597 0.038301
0.528222 0.016564 0.056526
0.595077 -0.024744 0.014237
0.610846 0.002158 0.062826
0.591493 -0.058870 0.054727
0.584303 0.086377 0.041883
0.582617 0.082555 0.033101
0.601741 -0.021637 0.019204
0.527439 0.005206 0.037848
0.545736 -0.025672 0.055394
0.599958 -0.001548 0.072938
0.582870 -0.017060 0.008106
0.600838 0.068319 0.055326
0.545216 0.037176 0.080983
0.595113 0.005931 0.077755
0.612047 -0.035897 0.053222
0.590202 0.050917 0.021045
0.563046 0.096259 0.062326
0.613421 -0.012147 0.052088
0.543038 -0.028674 0.047041
0.549921 -0.042903 0.035772
0.561427 -0.052760 0.017407
0.537750 0.019982 0.010739
0.601430 -0.027749 0.064260
0.597279 0.056696 0.076395
0.610653 0.012249 0.065507
0.605642 -0.057039 0.016320
0.585033 0.049242 0.084517
0.587940 0.060319 0.080908
0.559784 -0.055852 0.031157
0.540651 0.004384 0.007932
0.600688 0.049012 0.032132
0.603333 0.047495 0.035803
0.585849 0.086664 0.046538
0.555380 0.008951 0.080032
0.533679 0.031128 0.070174
0.573925 0.039194 0.087495
0.530838 0.024552 0.064946
0.608804 0.024124 0.037524
0.537633 -0.010316 0.056029
0.609706 -0.049245 0.053513
0.527913 0.010871 0.051344
0.599139 -0.064023 0.051002
0.554059 -0.047161 0.040050
0.598122 -0.065641 0.015865
0.587774 0.034479 0.084669
0.572675 0.090569 0.035264
0.560659 -0.034626 0.008481
0.531195 0.016028 0.062666
0.546500 0.004593 0.074305
0.560628 0.086368 0.073816
0.610273 -0.005582 0.033542
0.582515 0.020446 0.009843
0.613155 -0.014794 0.052559
0.531158 0.072650 0.043932
0.533377 0.022239 0.068070
0.551815 0.095381 0.041014
0.535354 0.066289 0.067502
0.549157 0.046052 0.009169
0.611241 -0.070418 0.042315
0.547388 0.069910 0.017745
0.557439 -0.051159 0.020770
0.553581 0.083819 0.024330
0.605833 -0.022423 0.062319
0.593267 0.045287 0.022170
0.609687 -0.004377 0.062552
0.595218 0.068273 0.035679
0.533484 0.077141 0.040681
0.591233 0.027002 0.083058
0.537979 0.074507 0.066415
0.548235 -0.038784 0.020473
0.577220 0.065264 0.082747
0.572991 0.008052 0.082279
0.532752 -0.008500 0.044816
0.569650 -0.005535 0.077762
0.568653 0.096463 0.059063
0.566721 -0.002829 0.078517
0.570092 -0.059368 0.045088
0.566644 0.087250 0.073070
0.603281 -0.057980 0.053595
0.590095 -0.016232 0.072401
0.535825 -0.006178 0.013717
0.529793 -0.000660 0.043965
0.554856 0.025602 0.083963
0.598028 0.072855 0.058554
0.593467 0.007421 0.078823
0.617650 -0.039195 0.035887
0.573378 0.017013 0.084613
0.607127 0.001931 0.067906
0.545089 0.093703 0.049458
0.578595 -0.007053 0.077205
0.585076 0.084778 0.066300
0.552080 0.096591 0.057603
0.541915 0.014420 0.007463
0.528303 0.016985 0.056989
0.570335 0.035862 0.087591
0.565147 0.046129 0.087330
0.613891 0.009998 0.055490
0.595975 -0.065227 0.015480
0.545889 -0.025618 0.011567
0.547766 0.095429 0.052853
0.553441 0.058480 0.082677
0.532952 0.073624 0.056889
0.572347 -0.003582 0.004427
0.594641 -0.005383 0.015553
0.558942 -0.021783 0.068211
0.602931 -0.033517 0.061793
0.549703 -0.032020 0.054469
0.592955 -0.073678 0.022340
0.558611 0.098802 0.051054
0.594451 -0.031690 0.066037
0.605561 0.056434 0.061788
0.576424 -0.008583 0.076786
0.604253 0.026984 0.030505
0.575318 -0.063074 0.044729
0.586079 0.077443 0.031367
0.577318 -0.009321 0.005774
0.547186 0.053394 0.011902
0.592820 0.080506 0.055408
0.610508 -0.007727 0.060196
0.543804 -0.015005 0.061287
0.584640 0.082788 0.036088
0.557431 0.084670 0.074393
0.576311 -0.048192 0.058910
0.616948 -0.053758 0.046011
0.531618 0.038410 0.019214
0.542011 0.058130 0.016403
0.550015 0.029175 0.005775
0.613028 -0.048780 0.050904
0.580395 -0.019684 0.007041
0.568033 0.092342 0.035358
0.563072 -0.048379 0.051619
0.603273 0.060848 0.046472
0.526364 0.009734 0.038719
0.577968 0.032905 0.086790
0.550594 0.043233 0.008128
0.565933 -0.021631 0.070672
0.539091 -0.021540 0.047136
0.595826 0.074424 0.063568
0.603475 -0.045353 0.058146
0.549211 -0.037841 0.017138
0.528859 0.018856 0.022174
0.584539 0.058301 0.018817
0.592885 0.071050 0.072231
0.562038 -0.002398 0.077954
0.556614 -0.041317 0.052826
0.590915 0.062739 0.078464
0.615070 -0.055041 0.022313
0.617130 -0.036386 0.036694
0.615618 -0.032022 0.034588
0.574088 0.008348 0.082339
0.530028 0.045686 0.065568
0.614071 -0.007360 0.049322
0.543805 0.062691 0.016901
0.586195 -0.046019 0.010376
0.576623 -0.057821 0.013915
0.545321 -0.021800 0.010284
0.525898 0.035722 0.055646
0.574876 0.078380 0.078074
0.556103 -0.047687 0.018259
0.563591 0.045033 0.007728
0.532229 0.068173 0.060225
0.592959 0.055202 0.025002
0.524039 0.033547 0.044397
0.601998 0.033385 0.028841
0.562558 -0.044261 0.011629
0.554539 -0.032322 0.058807
0.554993 0.084808 0.024887
0.582160 -0.031175 0.068075
0.528809 0.049965 0.061886
0.604210 0.054001 0.041624
0.606589 -0.058997 0.016665
0.545629 0.092256 0.041395
0.604147 0.048915 0.038087
0.534047 -0.006264 0.052035
0.574801 0.006471 0.081773
0.598738 -0.063018 0.014883
0.526239 0.016248 0.029658
0.549315 0.046692 0.082467
0.604331 0.017747 0.028644
0.573420 -0.066795 0.033516
0.543781 -0.031526 0.043952
0.606044 0.042581 0.038729
0.600952 -0.074231 0.040247
0.598561 0.000645 0.074487
0.544622 0.050820 0.012262
0.552014 -0.021749 0.007024
0.547239 -0.027510 0.055655
0.543251 0.033195 0.079571
0.600704 -0.066298 0.049218
0.574622 0.086642 0.030779
0.558715 0.060470 0.083901
0.552951 -0.043221 0.045510
0.560617 -0.029738 0.007016
0.550228 -0.043469 0.026343
0.568964 -0.033051 0.065715
0.620214 -0.057484 0.039241
0.581615 -0.068561 0.019570
0.607519 -0.006803 0.028712
0.613067 -0.011692 0.038679
0.524860 0.040049 0.036496
0.525387 0.015947 0.044134
0.600431 0.066005 0.044714
0.575090 -0.068725 0.026108
0.583177 0.089701 0.051268
0.549496 0.061786 0.013609
0.553796 -0.030368 0.009126
0.525986 0.013620 0.045292
0.584159 -0.022595 0.071277
0.585151 0.077663 0.030467
0.538345 0.053458 0.074864
0.571120 0.058265 0.085269
0.566995 -0.046595 0.011253
0.619782 -0.049043 0.037153
0.555228 -0.015349 0.004949
0.589246 -0.059889 0.013319
0.565950 0.046233 0.087381
0.539774 -0.023615 0.045860
0.570883 -0.049136 0.056088
0.526603 0.035186 0.057834
0.560529 -0.008149 0.003673
0.580597 -0.068174 0.041031
0.594005 0.066185 0.032032
0.557354 -0.004420 0.075850
0.601503 0.007876 0.074649
0.610096 0.042337 0.057443
0.601055 0.017859 0.024446
0.554048 0.097867 0.053479
0.542845 0.084968 0.065311
0.602219 -0.001180 0.071487
0.601047 0.067616 0.051612
0.592561 0.020396 0.081808
0.529801 0.011358 0.020615
0.572463 0.027399 0.086638
0.547569 0.041656 0.082049
0.577086 0.093407 0.056572
0.588513 0.084428 0.047792
0.571948 -0.035750 0.007331
0.540130 0.017615 0.074104
0.541800 -0.028642 0.043055
0.613733 0.000731 0.054453
0.614360 -0.063842 0.021687
0.533618 -0.014266 0.030414
0.564283 0.004885 0.080861
0.587762 0.020729 0.013346
0.606340 -0.025759 0.061111
0.609428 0.041277 0.047512
0.536701 0.053982 0.019278
0.579963 -0.042321 0.062961
0.599977 0.069769 0.057188
0.575085 -0.039497 0.063696
0.573040 0.038587 0.008342
0.610610 0.001845 0.063138
0.550537 0.032663 0.083340
0.534045 0.019395 0.014449
0.544850 -0.013010 0.063706
0.587822 -0.029311 0.068348
0.597618 -0.061403 0.052867
0.611519 0.033907 0.050989
0.537357 0.042752 0.014346
0.563585 -0.033937 0.063241
0.537816 0.070739 0.026266
0.611765 -0.065639 0.046324
0.570454 0.013114 0.004828
0.580427 0.083259 0.072457
0.543594 -0.016075 0.009453
0.579108 0.058931 0.015376
0.602627 0.060681 0.065984
0.595977 0.026335 0.020613
0.524474 0.027506 0.048076
0.539374 0.018284 0.073627
0.601227 -0.068022 0.047809
0.538883 -0.012612 0.012295
0.538491 0.016808 0.009881
0.557208 0.034723 0.005842
0.535825 -0.010897 0.015674
0.556640 0.030219 0.085144
0.570150 0.032970 0.087363
0.539500 0.081183 0.063837
0.568211 0.069968 0.015537
0.591052 0.013069 0.081001
0.606920 -0.060473 0.051257
0.537470 0.072738 0.027948
0.585522 -0.062139 0.051375
0.553766 0.015690 0.004365
0.544420 0.092536 0.056254
0.615018 -0.026647 0.036986
0.611635 -0.035881 0.025746
0.593448 -0.001991 0.014972
0.584145 0.020809 0.084210
0.610510 -0.006059 0.060726
0.561137 0.048197 0.008195
0.605850 -0.068683 0.019436
0.596295 0.071439 0.067001
0.608086 0.037240 0.068340
0.543288 -0.016170 0.059884
0.563341 0.064830 0.083521
0.601630 0.017122 0.024998
0.590717 -0.071362 0.020041
0.613652 0.007889 0.056821
0.524429 0.038570 0.047353
0.604686 0.056936 0.064730
0.545720 -0.037037 0.034074
0.577237 0.047558 0.011503
0.529786 0.044733 0.065178
0.557909 0.028157 0.085207
0.588789 -0.032839 0.066866
0.535239 0.078075 0.058370
0.580160 -0.010836 0.006893
0.598999 0.071458 0.057313
0.612376 -0.047771 0.051653
0.568915 -0.043569 0.059268
0.529922 0.046346 0.024770
0.591750 -0.058905 0.013052
0.530603 0.063231 0.033693
0.608722 0.008458 0.033635
0.535739 0.059616 0.022985
0.552392 0.080984 0.022298
0.590508 0.001724 0.078156
0.546244 0.051191 0.011636
0.577475 0.062542 0.015709
0.530199 0.028570 0.064744
0.597524 -0.054565 0.056551
0.559632 0.089344 0.071382
0.562339 -0.058734 0.027022
0.583795 -0.033205 0.008691
0.558604 -0.021313 0.005388
0.607921 0.019823 0.070262
0.590188 0.076745 0.036487
0.605462 -0.010146 0.065783
0.603406 -0.014237 0.022049
0.552526 0.049733 0.083599
0.565955 -0.061430 0.023091
0.610794 -0.016848 0.031547
0.527297 0.007375 0.043644
0.595910 0.029217 0.021061
0.587111 -0.011441 0.010502
0.530041 -0.003243 0.028949
0.581647 -0.059931 0.052018
0.576223 -0.018783 0.073046
0.544225 -0.034932 0.030277
0.537057 -0.016028 0.048990
0.600265 0.066411 0.044836
0.613980 0.009111 0.054576
0.569120 -0.051012 0.012557
0.607015 -0.027272 0.023179
0.546389 0.045745 0.009991
0.538293 -0.003267 0.062411
0.593279 0.030046 0.018876
0.560425 -0.046185 0.013523
0.526357 0.054159 0.045226
0.560461 0.082557 0.022337
0.532596 0.061653 0.028543
0.559342 -0.004338 0.003606
0.582267 -0.006647 0.007980
0.533817 -0.014639 0.033951
0.538551 0.011756 0.070741
0.572568 0.096291 0.050890
0.569031 -0.029612 0.067521
0.544915 0.092315 0.043033
0.588550 -0.007573 0.075642
0.575924 -0.030896 0.068033
0.529877 0.068882 0.044362
0.553945 -0.001021 0.004004
0.611781 0.025486 0.045783
0.528325 0.062715 0.049572
0.541879 0.046267 0.012279
0.610499 -0.042427 0.022445
0.539645 0.084745 0.060639
0.600677 -0.032131 0.063424
0.527870 0.059245 0.052242
0.550483 -0.034375 0.053095
0.592221 0.053734 0.080778
0.589239 -0.068924 0.018197
0.581858 -0.061082 0.014512
0.542767 -0.019030 0.057096
0.530676 0.025379 0.064877
0.578923 0.064451 0.082634
0.580942 -0.013224 0.074875
0.568870 -0.010059 0.003921
0.576232 0.041277 0.087199
0.553985 0.029264 0.005292
0.600100 -0.022085 0.017807
0.607999 0.025437 0.070175
0.612910 -0.006546 0.055385
0.576672 0.082195 0.027063
0.527073 0.010031 0.029479
0.603593 0.045370 0.073293
0.592236 0.080271 0.048050
0.531004 -0.001910 0.047682
0.596568 0.046011 0.025712
0.536018 0.080505 0.057490
0.616507 -0.067697 0.039839
0.613562 0.007802 0.045874
0.591933 0.033228 0.018355
0.605617 -0.011364 0.025200
0.572535 -0.046865 0.058498
0.547810 0.085645 0.028718
0.551936 0.008008 0.078403
0.587332 0.019609 0.083323
0.527516 0.031557 0.059941
0.553913 -0.025140 0.063399
0.614010 -0.035769 0.050246
0.527554 0.015742 0.025432
0.591052 0.039012 0.018808
0.617873 -0.039589 0.039894
0.615515 -0.029995 0.045314
0.591823 -0.042419 0.011826
0.566125 -0.057648 0.043048
0.528905 0.063376 0.039876
0.573748 -0.064677 0.040161
0.569176 0.086976 0.072942
0.581856 0.036506 0.011829
0.582928 0.048929 0.085170
0.526136 0.052793 0.043582
0.611584 0.017258 0.064064
0.570496 0.096564 0.056663
0.598653 0.048284 0.028988
