ply
format ascii 1.0
element vertex 1024
property float x
property float y
property float z
end_header
0.511460 -0.002664 0.048075
0.574022 -0.013710 0.079688
0.542406 -0.069348 0.061124
0.546768 0.007446 0.033058
0.503065 -0.045084 0.091652
0.514753 0.059273 0.058439
0.529747 0.033801 0.115764
0.572357 0.028846 0.062104
0.554245 -0.059819 0.109744
0.544119 0.074187 0.065445
0.505738 -0.069956 0.086342
0.524127 -0.102067 0.069446
0.546105 0.061101 0.094958
0.505194 -0.041856 0.109189
0.553216 -0.074951 0.086008
0.568035 -0.021310 0.064894
0.565247 0.011521 0.046646
0.539648 -0.019606 0.129170
0.524501 -0.017059 0.039868
0.541188 0.025463 0.119374
0.570598 0.022715 0.055258
0.548162 -0.084374 0.089587
0.510108 -0.007608 0.119191
0.553171 0.043002 0.104936
0.524304 0.064580 0.091601
0.524392 -0.101913 0.096599
0.531589 -0.098527 0.097999
0.544015 0.034200 0.114398
0.550124 -0.021195 0.041768
0.534262 -0.101208 0.079818
0.504448 -0.015503 0.110320
0.528665 -0.059726 0.054028
0.525809 -0.095965 0.104853
0.503860 -0.044396 0.080220
0.560870 -0.031841 0.113551
0.516066 0.004198 0.041566
0.562492 -0.039914 0.068015
0.505109 -0.063293 0.088890
0.510691 0.012254 0.115550
0.514243 -0.068340 0.062473
0.576487 0.005356 0.081244
0.518087 -0.017779 0.044637
0.572146 0.004468 0.059582
0.527479 -0.067182 0.122499
0.573872 -0.013119 0.090912
0.567882 -0.004854 0.107765
0.500372 0.019495 0.068927
0.510337 0.004415 0.048090
0.544049 -0.051922 0.053972
0.511419 0.052316 0.093385
0.549183 -0.079801 0.098001
0.571416 -0.021044 0.074874
0.567257 -0.035150 0.099115
0.529506 0.017230 0.032410
0.570665 -0.022132 0.073214
0.528300 -0.040462 0.129887
0.512121 0.039496 0.047755
0.575770 0.017781 0.085446
0.542389 -0.032388 0.043500
0.515405 0.037341 0.043497
0.509548 -0.081573 0.101050
0.519020 -0.103351 0.072085
0.539059 0.023587 0.031174
0.571691 0.029590 0.060417
0.576002 0.000510 0.085166
0.504652 -0.030546 0.069683
0.548662 0.071688 0.077241
0.508615 -0.084295 0.097799
0.541727 0.038150 0.112764
0.514112 0.016956 0.042214
0.562273 0.005730 0.113660
0.568847 -0.023767 0.102106
0.527893 0.044632 0.108698
0.512152 -0.019829 0.122750
0.517247 -0.050918 0.122977
0.500407 0.035240 0.073693
0.521418 -0.064562 0.057084
0.532272 0.018533 0.031594
0.565113 0.053595 0.069097
0.520893 0.050330 0.102448
0.513701 0.020416 0.115408
0.524650 -0.101006 0.098253
0.565597 -0.040518 0.099682
0.546323 -0.063877 0.061399
0.539509 0.070589 0.085928
0.528577 -0.104497 0.082538
0.575575 0.020459 0.072942
0.528196 -0.008895 0.036105
0.547839 -0.077052 0.072131
0.518488 -0.034657 0.049854
0.531821 0.073975 0.063419
0.516194 -0.044732 0.055585
0.551727 -0.001498 0.122413
0.563902 -0.037398 0.069004
0.503244 0.009527 0.104211
0.525736 0.052389 0.102970
0.536140 0.075119 0.074139
0.520308 0.001906 0.125208
0.507416 -0.012977 0.057258
0.570480 0.040875 0.071075
0.574905 0.025782 0.077111
0.527186 0.043919 0.108991
0.552497 -0.043400 0.055484
0.547905 -0.079067 0.102165
0.504855 -0.048052 0.077311
0.516445 -0.101645 0.070868
0.546846 0.065295 0.051310
0.505879 -0.071209 0.090694
0.501145 0.034910 0.068415
0.530499 0.072789 0.060810
0.574841 0.024696 0.072560
0.509737 0.019045 0.047375
0.559618 0.014494 0.040379
0.542512 -0.083676 0.069621
0.553947 -0.051570 0.114762
0.524015 0.013231 0.034914
0.569499 -0.022849 0.100916
0.574590 -0.010826 0.079751
0.564428 -0.047318 0.083580
0.504467 -0.032922 0.109680
0.520988 -0.037083 0.048802
0.547847 -0.084155 0.092878
0.570506 0.003482 0.103489
0.506268 -0.050243 0.108528
0.531176 -0.074172 0.119628
0.508672 0.016147 0.048986
0.553873 -0.060485 0.068474
0.531939 -0.054573 0.126164
0.515525 -0.041185 0.124055
0.521254 0.059098 0.050046
0.523775 0.044099 0.039379
0.571971 -0.023835 0.086551
0.563095 0.015410 0.110711
0.539531 -0.093908 0.075671
0.553210 -0.074794 0.092075
0.573250 0.015112 0.060252
0.559743 -0.047087 0.109188
0.506058 0.009851 0.109882
0.560456 0.056702 0.084742
0.569502 0.037434 0.090467
0.561785 0.041375 0.048189
0.555332 -0.059926 0.070674
0.523869 0.071067 0.066565
0.523721 -0.048148 0.051467
0.505258 0.041826 0.059804
0.571408 -0.003076 0.060977
0.569088 0.044124 0.068143
0.517529 0.051460 0.047779
0.544219 0.070923 0.056964
0.506318 -0.023218 0.114195
0.542376 -0.072592 0.062722
0.513935 0.063243 0.070361
0.530535 0.040481 0.035245
0.551618 0.067777 0.058128
0.574370 -0.000367 0.068319
0.571540 0.037718 0.072221
0.498808 -0.006339 0.088312
0.516649 0.056439 0.052534
0.510273 -0.071513 0.107049
0.536721 0.037251 0.114014
0.538622 -0.049769 0.125408
0.547584 -0.080708 0.075328
0.542842 -0.055173 0.054861
0.553084 -0.010845 0.122064
0.539068 -0.088460 0.068986
0.566843 -0.027720 0.104962
0.516175 0.020178 0.040226
0.563356 -0.043879 0.073980
0.536628 -0.006979 0.129085
0.502193 -0.020976 0.105017
0.566636 -0.032590 0.071517
0.517069 0.066226 0.077254
0.554024 -0.063494 0.071314
0.512719 -0.030941 0.122900
0.531158 0.021216 0.032001
0.552998 -0.046210 0.117716
0.505249 -0.034045 0.111225
0.507280 -0.007104 0.114854
0.528189 0.068156 0.054175
0.505101 0.039599 0.058911
0.518471 -0.061351 0.120592
0.558605 0.039711 0.043638
0.542598 0.029207 0.032269
0.509949 -0.054643 0.066565
0.499330 -0.011241 0.084748
0.540762 -0.020576 0.038135
0.506935 0.052659 0.066810
0.572116 0.005721 0.100148
0.512654 -0.034955 0.122300
0.539387 0.004935 0.126160
0.546735 0.066389 0.052435
0.556443 -0.060437 0.073594
0.519538 0.023068 0.037651
0.540839 -0.093358 0.093264
0.499388 -0.006891 0.094246
0.563502 0.048020 0.090877
0.519574 0.044929 0.105355
0.558510 -0.018985 0.047519
0.504945 0.047986 0.084047
0.529428 0.042409 0.036194
0.511338 0.051646 0.055721
0.517729 0.009693 0.121593
0.547527 0.005934 0.123445
0.572188 0.034956 0.083405
0.540413 -0.024959 0.039685
0.503997 -0.052763 0.089657
0.562036 0.024671 0.108287
0.525769 -0.088869 0.111313
0.522304 -0.105235 0.076679
0.570052 -0.030393 0.083119
0.550280 -0.079893 0.093602
0.507454 0.022428 0.050772
0.553429 -0.072389 0.097381
0.560470 -0.014907 0.047866
0.532593 0.018194 0.031514
0.526754 0.058289 0.098916
0.539012 -0.091086 0.071159
0.559806 -0.025215 0.115889
0.541242 0.056532 0.041816
0.505618 -0.068297 0.090613
0.548117 -0.078378 0.102628
0.521835 0.036098 0.038047
0.519841 -0.054492 0.123773
0.519729 0.065982 0.084967
0.515328 -0.052581 0.058816
0.504448 -0.055918 0.096407
0.534941 -0.022195 0.130692
0.507747 -0.022932 0.060037
0.562204 0.001380 0.114204
0.511674 -0.014328 0.050937
0.540116 -0.070640 0.060261
0.525339 0.063849 0.051147
0.544115 0.032581 0.033168
0.539730 0.009620 0.124939
0.561361 -0.056499 0.090500
0.507911 -0.090298 0.092039
0.564811 0.049754 0.059516
0.538037 -0.093883 0.097624
0.542486 0.005932 0.125224
0.557602 -0.061322 0.077846
0.500998 0.022158 0.093682
0.538255 0.057256 0.042106
0.559791 0.002543 0.116303
0.499942 -0.016685 0.083994
0.559617 0.007751 0.040789
0.519819 -0.056543 0.056132
0.501992 -0.025938 0.077051
0.505947 -0.016071 0.113351
0.504499 -0.036789 0.108948
0.510857 -0.067396 0.109842
0.517496 -0.089949 0.105984
0.547987 -0.005172 0.035815
0.520198 -0.095960 0.064559
0.562500 0.056340 0.080227
0.544969 0.068590 0.054084
0.563709 0.027431 0.105296
0.506805 0.047388 0.060392
0.517188 0.032436 0.040636
0.524467 -0.100200 0.067407
0.499767 0.017544 0.091038
0.552002 0.010611 0.034966
0.531860 -0.064439 0.123147
0.510629 0.055819 0.087672
0.543935 0.045698 0.107537
0.542381 -0.010986 0.127708
0.570057 0.016891 0.053564
0.503463 -0.038190 0.078026
0.535200 -0.010277 0.034880
0.509739 -0.004338 0.050915
0.506225 -0.074936 0.091468
0.540997 -0.075481 0.113845
0.514143 0.038203 0.045024
0.521126 0.037195 0.038795
0.569417 0.027938 0.097357
0.513379 0.049937 0.097553
0.562908 -0.037562 0.066883
0.527888 -0.092236 0.063251
0.516107 -0.084672 0.062996
0.513468 -0.021279 0.124201
0.530798 -0.051189 0.050798
0.519857 0.044168 0.042047
0.511311 -0.000327 0.119369
0.509747 0.057505 0.067516
0.506482 -0.079410 0.081015
0.567489 0.010949 0.049730
0.564131 -0.000126 0.112318
0.502815 0.005570 0.061761
0.499836 -0.019471 0.089421
0.519418 0.067130 0.064494
0.512305 0.017080 0.044158
0.533712 0.029782 0.118179
0.537282 -0.089873 0.104127
0.552005 -0.033248 0.049074
0.571177 -0.021645 0.096381
0.520331 0.068932 0.076361
0.553874 0.015955 0.035778
0.510931 -0.039428 0.119388
0.543337 0.043615 0.035638
0.563051 0.051731 0.087037
0.549056 -0.073197 0.106688
0.535845 -0.079307 0.061535
0.528429 -0.057703 0.053424
0.531716 -0.051084 0.127175
0.549807 -0.058903 0.115490
0.541432 -0.087954 0.071779
0.515867 -0.086170 0.063401
0.567169 -0.001674 0.052106
0.509287 -0.093173 0.071862
0.512003 -0.089094 0.067201
0.547381 0.063315 0.049562
0.564237 0.054835 0.066907
0.527320 0.071987 0.062295
0.508064 0.024092 0.049891
0.543499 0.050023 0.038228
0.501829 0.030201 0.091866
0.564651 0.054392 0.075645
0.557575 0.058445 0.087195
0.517996 -0.003955 0.041276
0.504044 0.040709 0.061974
0.516504 -0.095557 0.100408
0.545564 -0.007915 0.035620
0.545079 0.003640 0.124843
0.524749 0.071535 0.066111
0.516791 -0.006119 0.042843
0.509161 -0.061548 0.069351
0.555976 0.040945 0.104363
0.570764 -0.001193 0.103261
0.551367 -0.065520 0.068336
0.537508 0.067201 0.091265
0.517700 0.042495 0.105849
0.504359 -0.056230 0.090612
0.570948 0.026209 0.095406
0.545633 -0.051701 0.121219
0.563270 -0.042671 0.072450
0.532876 -0.087508 0.063313
0.569749 0.024200 0.098574
0.516310 -0.080008 0.110820
0.516055 0.028178 0.113466
0.561770 -0.000647 0.114766
0.526023 0.071210 0.062083
0.527497 -0.079183 0.059182
0.563192 -0.044233 0.103682
0.545962 0.033764 0.113974
0.575964 -0.001130 0.083400
0.532186 -0.074439 0.058559
0.507487 -0.074297 0.075335
0.500375 -0.009646 0.098939
0.500467 -0.015000 0.078881
0.536533 -0.077559 0.061195
0.502573 0.002830 0.103993
0.501427 -0.027338 0.101136
0.555915 0.020130 0.115125
0.536491 0.065331 0.048837
0.537946 -0.060970 0.122245
0.564540 -0.040239 0.073471
0.521410 0.035380 0.112354
0.512289 0.061749 0.074547
0.537832 -0.095230 0.095569
0.518091 -0.071587 0.059888
0.520395 0.002933 0.124920
0.543267 0.065019 0.049534
0.561066 0.050888 0.091286
0.504086 0.023430 0.101001
0.504366 -0.055635 0.087376
0.573999 -0.014613 0.081743
0.514488 0.063373 0.079882
0.503405 0.004860 0.060407
0.547141 -0.071828 0.067048
0.527688 0.003326 0.126814
0.536153 0.036656 0.114398
0.570976 0.003234 0.057383
0.545135 0.048775 0.105139
0.525408 0.006346 0.034762
0.537823 0.064573 0.048153
0.571006 0.008497 0.101832
0.505428 0.040943 0.058922
0.503232 0.024059 0.098876
0.551867 -0.067537 0.070817
0.507365 -0.074334 0.075845
0.516426 -0.056797 0.058682
0.548185 0.071529 0.078364
0.539656 -0.094958 0.092335
0.564914 0.012391 0.109626
0.561351 -0.054358 0.081182
0.570343 -0.029043 0.082046
0.541860 -0.025977 0.128129
0.568393 -0.033604 0.078968
0.573547 0.030550 0.083254
0.574909 0.008176 0.092222
0.528980 -0.102255 0.072234
0.516398 0.040838 0.043701
0.515167 0.061992 0.062237
0.555066 -0.069209 0.081082
0.509041 -0.010634 0.118063
0.511518 -0.062175 0.065204
0.564394 0.046854 0.090707
0.553094 0.026834 0.114085
0.546623 -0.049669 0.121235
0.534997 0.071606 0.084329
0.532853 0.071773 0.083564
0.538238 0.059629 0.043943
0.534327 0.046672 0.036527
0.508381 -0.020213 0.057971
0.567586 0.046997 0.082237
0.504460 -0.004413 0.109278
0.508415 -0.048929 0.113107
0.523787 -0.034472 0.046136
0.539445 -0.010705 0.035049
0.517730 -0.064267 0.058988
0.552672 -0.061312 0.067182
0.527324 0.069581 0.085452
0.526929 0.009866 0.033723
0.539444 -0.003237 0.127791
0.550348 0.066307 0.085734
0.526065 0.065395 0.091496
0.568007 -0.035898 0.080888
0.553484 -0.074165 0.092408
0.530163 -0.013920 0.130864
0.567764 0.045651 0.063689
0.542122 -0.058600 0.056038
0.548353 -0.005502 0.036036
0.511514 0.060854 0.074697
0.519618 0.038118 0.109763
0.520331 0.065753 0.086248
0.517211 0.065016 0.064410
0.554917 -0.050344 0.062617
0.565610 0.007198 0.109898
0.501157 0.012637 0.065841
0.563723 0.017420 0.109426
0.575369 -0.002469 0.074785
0.502765 -0.008892 0.106021
0.532582 -0.039605 0.045686
0.535480 0.018200 0.122880
0.550691 -0.075528 0.076497
0.559315 -0.057411 0.078075
0.547938 -0.084252 0.082896
0.525301 -0.028121 0.130933
0.568340 -0.017307 0.062652
0.570476 0.037734 0.063685
0.573007 -0.018787 0.089119
0.515771 -0.068153 0.115671
0.505307 -0.065157 0.089603
0.572145 -0.011900 0.068631
0.571330 0.008447 0.101231
0.499548 -0.007077 0.080292
0.511374 -0.099956 0.074522
0.576237 0.011876 0.073232
0.518965 0.010820 0.038293
0.551234 0.069857 0.078018
0.564794 -0.003747 0.111711
0.521014 0.010079 0.036907
0.499608 0.029507 0.081999
0.501697 -0.034538 0.090710
0.498767 0.021548 0.080691
0.567752 0.038658 0.056753
0.548100 0.033812 0.113106
0.500302 -0.020955 0.096934
0.518528 -0.057730 0.057243
0.563314 -0.051269 0.091552
0.544511 0.006541 0.124474
0.513979 0.015424 0.042407
0.542721 0.068042 0.052542
0.544908 0.073634 0.075797
0.528176 0.055315 0.101597
0.574845 0.026006 0.081364
0.536661 0.016855 0.030897
0.523766 -0.010157 0.129532
0.552522 0.048741 0.101363
0.564812 -0.034525 0.068555
0.533268 0.022157 0.121518
0.549484 0.001879 0.123215
0.534057 0.003543 0.032366
0.510920 0.056112 0.061335
0.572074 0.033949 0.066558
0.509151 -0.066490 0.107381
0.533611 -0.074081 0.058809
0.525690 -0.014788 0.038640
0.566698 0.050214 0.068704
0.530375 -0.102000 0.092368
0.521500 0.067409 0.084292
0.551106 -0.066057 0.068342
0.520800 0.029674 0.037463
0.575324 0.000146 0.072383
0.507420 -0.086867 0.092844
0.509815 -0.080828 0.101914
0.558981 -0.014529 0.046017
0.567681 0.004487 0.051097
0.549603 -0.014424 0.039022
0.557206 -0.007379 0.119021
0.553919 -0.031578 0.120347
0.574423 -0.012811 0.084387
0.543719 -0.019160 0.038345
0.556319 -0.063766 0.101617
0.559971 0.007367 0.041172
0.521757 -0.085564 0.060894
0.503548 -0.049285 0.094167
0.551404 0.046755 0.040117
0.562870 0.006760 0.044269
0.503682 -0.046790 0.083868
0.511022 0.056114 0.061118
0.539831 0.040726 0.111594
0.552970 0.011435 0.035447
0.570367 -0.014455 0.102184
0.543111 -0.060329 0.057326
0.508450 -0.000555 0.115744
0.543946 -0.071614 0.063533
0.570049 -0.027220 0.095734
0.504273 0.003181 0.107804
0.514422 -0.099454 0.093452
0.554536 0.053907 0.095631
0.529227 -0.027004 0.131384
0.563486 -0.045221 0.075911
0.549818 0.065781 0.053787
0.572377 -0.022226 0.085428
0.549347 0.065207 0.052775
0.564887 -0.046333 0.093487
0.512688 -0.063767 0.063750
0.522942 -0.027251 0.130326
0.532198 -0.064362 0.055437
0.519025 0.023265 0.038033
0.502946 0.017441 0.059832
0.549587 0.066890 0.085644
0.500091 0.022861 0.070391
0.542583 -0.062151 0.119435
0.522747 0.057642 0.097863
0.502149 0.038396 0.086038
0.545222 -0.048977 0.053200
0.507244 -0.050750 0.110377
0.512428 -0.080320 0.065689
0.567156 0.049402 0.076869
0.550862 -0.059823 0.113993
0.547316 0.035160 0.034650
0.527343 -0.083600 0.115068
0.508669 -0.065563 0.071021
0.538229 0.018806 0.030849
0.564625 0.054423 0.068346
0.528542 0.050652 0.039940
0.531989 0.008397 0.032148
0.507885 -0.011201 0.116300
0.526631 -0.088017 0.061432
0.503052 -0.044211 0.089190
0.537781 0.033137 0.116237
0.547678 -0.002399 0.035091
0.528514 -0.099020 0.099804
0.550254 0.038194 0.109632
0.573663 0.011045 0.095317
0.506924 -0.063420 0.075448
0.500241 -0.000686 0.097601
0.547357 -0.039107 0.123531
0.506443 -0.075803 0.093023
0.512817 -0.060105 0.063106
0.568638 -0.016091 0.105116
0.572777 0.026891 0.062268
0.569288 0.037288 0.059370
0.522751 -0.081325 0.059860
0.514193 -0.089831 0.102802
0.500424 0.015384 0.094436
0.540393 0.062905 0.046876
0.518699 0.036038 0.040248
0.505412 -0.013194 0.112110
0.510959 -0.054225 0.115143
0.507750 0.019677 0.050281
0.533675 -0.009390 0.129973
0.503995 -0.052747 0.095505
0.568673 -0.033758 0.094181
0.569388 0.043982 0.078170
0.522528 -0.060494 0.123347
0.521434 0.032544 0.037545
0.514225 -0.098546 0.069283
0.530627 -0.023099 0.039261
0.507486 -0.080669 0.096182
0.547280 0.073242 0.065942
0.528567 0.058658 0.045037
0.504619 0.033931 0.057657
0.499612 -0.012919 0.094760
0.499860 0.009133 0.072611
0.501875 0.042058 0.076895
0.526475 0.053034 0.102752
0.503150 0.016018 0.102032
0.546496 0.010397 0.032596
0.549449 0.065838 0.053566
0.565547 0.033190 0.100077
0.545952 0.073328 0.075625
0.524636 0.032213 0.035692
0.505686 -0.013438 0.060755
0.520225 0.051372 0.045283
0.512400 0.028915 0.044705
0.571195 -0.009068 0.101746
0.544535 -0.049014 0.052858
0.560457 -0.058792 0.088911
0.559177 -0.041666 0.112676
0.519243 0.035393 0.111261
0.545243 0.025562 0.118204
0.543018 -0.039940 0.047635
0.510146 0.005871 0.048095
0.544942 -0.089348 0.089121
0.521513 -0.000865 0.126551
0.547774 -0.085101 0.088626
0.502303 -0.004445 0.066119
0.524601 0.043931 0.108193
0.498968 0.001183 0.091516
0.544076 0.060397 0.096598
0.563763 0.025698 0.045824
0.504865 -0.009164 0.110645
0.565462 0.051217 0.063903
0.515301 -0.063101 0.117144
0.522027 -0.100397 0.067458
0.564101 0.006908 0.111620
0.504276 -0.054131 0.085939
0.537283 -0.033868 0.043122
0.547072 -0.085141 0.081067
0.517271 0.054377 0.050082
0.510665 0.051313 0.056529
0.505483 -0.053384 0.077180
0.549353 -0.003577 0.123911
0.561950 -0.038739 0.109733
0.551447 -0.033778 0.048947
0.502762 -0.042865 0.096729
0.525048 0.031896 0.035439
0.575888 0.020806 0.080320
0.556695 -0.025116 0.048711
0.533752 -0.070209 0.057570
0.501324 0.018930 0.064769
0.543041 0.070719 0.056102
0.528679 -0.048234 0.049916
0.556032 -0.040695 0.116604
0.545138 -0.056406 0.119964
0.525307 -0.069516 0.121269
0.518574 0.006960 0.122851
0.546894 -0.059012 0.059264
0.547127 0.022110 0.032532
0.538287 -0.024272 0.039126
0.506457 -0.088102 0.085581
0.560623 0.019107 0.041492
0.554548 0.028608 0.037370
0.538773 -0.071884 0.117474
0.517130 -0.008727 0.126233
0.507153 0.013692 0.051536
0.509558 0.011392 0.048116
0.520754 0.054143 0.046624
0.574921 -0.009193 0.080449
0.571915 0.018879 0.096660
0.569415 0.013274 0.052535
0.569382 0.013599 0.103320
0.512239 -0.012476 0.049604
0.563658 -0.021572 0.111789
0.536950 -0.082044 0.063352
0.560420 0.001628 0.115856
0.541288 -0.092526 0.077763
0.547864 -0.061785 0.115818
0.510458 -0.093752 0.094682
0.561777 0.004263 0.043452
0.515590 0.062153 0.061626
0.514969 -0.052146 0.120538
0.568439 0.005429 0.106539
0.574143 -0.010393 0.091789
0.555802 0.062185 0.055967
0.512411 -0.041016 0.058872
0.498969 -0.007328 0.085216
0.529600 -0.050646 0.050712
0.543361 0.058896 0.098206
0.571458 0.010582 0.100467
0.528768 0.073565 0.075319
0.563663 0.051530 0.086075
0.508570 0.027825 0.106215
0.529376 -0.102554 0.073253
0.513499 0.050946 0.096885
0.529756 -0.066690 0.122683
0.514770 0.062050 0.084626
0.542531 -0.055433 0.054829
0.501876 0.012606 0.063334
0.538480 -0.039659 0.046150
0.509797 0.033684 0.048924
0.538815 0.062369 0.096356
0.559982 -0.003937 0.043440
0.560385 0.058426 0.081914
0.531527 -0.051976 0.126962
0.559958 0.036805 0.044174
0.569696 -0.015833 0.064808
0.555385 -0.018263 0.120358
0.569039 -0.027569 0.073640
0.537740 0.069065 0.052742
0.570544 -0.024049 0.074988
0.547461 -0.078582 0.103605
0.552487 0.061038 0.050945
0.540993 -0.088180 0.071327
0.557246 -0.044400 0.061859
0.525884 -0.017109 0.130864
0.554711 -0.009886 0.120932
0.576222 0.006707 0.074246
0.528452 0.037107 0.035052
0.558123 -0.023167 0.049191
0.516353 -0.075182 0.061484
0.570312 -0.007496 0.060807
0.543426 -0.032854 0.044085
0.539397 0.074201 0.077763
0.565019 -0.031945 0.066761
0.539067 0.052634 0.039071
0.543348 0.074636 0.067382
0.514710 0.000335 0.122416
0.564420 0.007279 0.111223
0.571492 0.011309 0.056512
0.571923 0.022710 0.057997
0.528284 -0.027472 0.041490
0.510950 -0.092655 0.096548
0.522596 -0.038779 0.129021
0.541066 0.074953 0.073482
0.570841 0.038220 0.066333
0.554081 0.059238 0.090655
0.501893 -0.026678 0.103301
0.502800 -0.035702 0.080024
0.567341 -0.039399 0.091724
0.544901 -0.064955 0.060786
0.560391 -0.046041 0.108653
0.519602 -0.099636 0.098550
0.534421 0.074569 0.064107
0.551985 -0.060437 0.065545
0.530606 0.019126 0.032076
0.565775 -0.032676 0.069236
0.507433 -0.008284 0.055726
0.545495 -0.083801 0.100432
0.508413 0.045346 0.055872
0.501861 -0.033732 0.100185
0.510768 0.035410 0.104510
0.526690 0.046043 0.038603
0.536517 -0.043094 0.047486
0.566476 -0.028025 0.105614
0.512462 0.050871 0.053423
0.557906 0.061633 0.058917
0.555609 -0.070060 0.088921
0.527857 -0.088695 0.061878
0.526034 0.026388 0.118859
0.516274 0.041589 0.105500
0.507643 0.011603 0.111963
0.533153 -0.082700 0.061560
0.503229 -0.044529 0.100069
0.517357 0.065355 0.064992
0.554641 -0.065889 0.103416
0.517188 0.024032 0.039504
0.549920 0.001053 0.123101
0.568013 0.006004 0.051276
0.507449 0.024689 0.106290
0.566600 -0.041553 0.084670
0.556723 -0.032659 0.117803
0.533638 0.039318 0.034230
0.543140 -0.076314 0.065427
0.527991 -0.051410 0.127338
0.532709 0.008832 0.125640
0.500615 0.027764 0.068377
0.543128 0.037107 0.033873
0.571936 -0.022103 0.079075
0.557390 -0.057094 0.106268
0.550758 0.029913 0.035223
0.507590 -0.089311 0.074354
0.516883 -0.072358 0.060740
0.514988 -0.067742 0.061669
0.569248 -0.015914 0.063765
0.567180 0.033824 0.097507
0.525226 -0.043930 0.049183
0.515300 0.045306 0.102418
0.507652 -0.071303 0.101434
0.516560 -0.079297 0.111443
0.521123 -0.034988 0.128947
0.561476 0.025763 0.108337
0.554826 0.049958 0.044368
0.527555 -0.062973 0.123905
0.501387 0.022114 0.094935
0.558173 0.054330 0.091392
0.503089 0.022074 0.059419
0.552490 0.024310 0.115540
0.505946 -0.001500 0.056489
0.518409 -0.061868 0.120372
0.562301 -0.047912 0.102724
0.514533 0.062519 0.082893
0.558880 -0.055906 0.074894
0.563763 0.038262 0.098912
0.513456 0.017254 0.042877
0.506657 -0.090262 0.085203
0.532157 0.072649 0.081307
0.511058 0.012468 0.045996
0.560986 -0.016570 0.115403
0.568718 -0.017922 0.063965
0.508935 -0.091478 0.093823
0.540895 0.007237 0.125307
0.574107 0.028445 0.073390
0.507087 -0.017035 0.059205
0.536785 -0.086700 0.108106
0.553371 -0.043635 0.118185
0.511768 0.005863 0.045971
0.532386 -0.102773 0.084003
0.553097 -0.031245 0.048797
0.512542 0.033823 0.107279
0.515393 -0.037144 0.124711
0.561824 -0.040970 0.108885
0.576029 0.017691 0.083782
0.539368 -0.095191 0.077899
0.511331 0.057800 0.063123
0.569439 0.038366 0.060740
0.552645 -0.057694 0.113175
0.512957 -0.047518 0.119785
0.536641 -0.057051 0.124052
0.562562 -0.053339 0.087665
0.520968 -0.093294 0.063212
0.521114 -0.091077 0.107872
0.509413 -0.041267 0.063705
0.516741 -0.047700 0.056028
0.544112 0.030174 0.116434
0.554271 0.007247 0.119697
0.516046 0.029835 0.041172
0.529729 -0.089079 0.110545
0.525667 0.057894 0.045895
0.510101 0.042577 0.099327
0.517796 -0.045867 0.124808
0.555399 0.004853 0.119362
0.559655 -0.048458 0.069256
0.507962 0.045857 0.056992
0.570891 0.038436 0.084056
0.565797 0.032205 0.050281
0.516558 -0.065531 0.117469
0.518040 -0.085183 0.062018
0.511250 -0.032160 0.121026
0.511047 -0.085403 0.101631
0.571617 0.022545 0.057264
0.555598 -0.034844 0.118401
0.555489 -0.069169 0.095045
0.563221 0.025027 0.106929
0.506832 -0.027104 0.114984
0.540719 -0.090357 0.099104
0.507342 0.032107 0.052183
0.572307 -0.022473 0.084568
0.550952 -0.025384 0.044106
0.526881 0.004317 0.034314
0.504679 -0.015855 0.063807
0.538642 0.075190 0.067169
0.555826 0.066704 0.075205
0.549146 -0.034174 0.047569
0.521735 0.031160 0.037117
0.559275 -0.010613 0.044815
0.532017 0.001440 0.127741
0.570987 0.002615 0.057625
0.575202 0.024263 0.076536
0.532426 0.063402 0.047608
0.521092 0.051156 0.044471
0.509380 -0.056923 0.111822
0.574719 0.004000 0.093436
0.552973 -0.040261 0.119411
0.528780 -0.036173 0.044811
0.508617 -0.097388 0.077824
0.542959 -0.024005 0.127709
0.572534 -0.015960 0.073741
0.499871 -0.008783 0.079137
0.541726 -0.058751 0.055918
0.518415 0.003527 0.039596
0.521681 0.039421 0.109942
0.556850 -0.065714 0.082304
0.526865 0.033551 0.034916
0.559136 -0.061441 0.085276
0.498929 0.012920 0.088562
0.537708 -0.034085 0.043276
0.576436 0.014795 0.076100
0.523536 0.007628 0.124516
0.567914 -0.026483 0.103069
0.556482 -0.056008 0.069431
0.543212 -0.089550 0.077452
0.521736 -0.004118 0.038453
0.518633 0.028596 0.114881
0.562726 -0.052408 0.093576
0.525021 0.054885 0.100966
0.532048 -0.098210 0.069625
0.500596 -0.010289 0.099809
0.546754 0.052735 0.040724
0.520262 -0.029014 0.129092
0.499711 0.030142 0.074315
0.534972 0.024105 0.031448
0.502124 -0.006184 0.067310
0.556492 0.018467 0.115319
0.574510 0.004880 0.094091
0.538139 -0.096992 0.078589
0.524273 -0.024191 0.130800
0.517959 0.003718 0.123539
0.503880 0.014476 0.104210
0.528330 -0.021563 0.131385
0.575858 0.010482 0.070853
0.571789 0.008637 0.057621
0.556459 0.064228 0.079805
0.502797 0.044149 0.080218
0.560257 -0.017036 0.048607
0.537740 -0.091733 0.070018
0.526380 0.056889 0.099924
0.547045 -0.086268 0.088571
0.506787 -0.002367 0.113384
0.545940 0.073325 0.075659
0.516600 -0.062466 0.059530
0.509296 -0.070084 0.070098
0.502281 -0.032107 0.080293
0.564889 -0.007453 0.050752
0.536746 -0.041519 0.046758
0.502369 0.025910 0.095873
0.510870 -0.099163 0.087452
0.536956 0.036348 0.033190
0.538236 0.000175 0.032684
0.565606 -0.028957 0.107016
0.566523 0.040962 0.055708
0.505040 -0.016740 0.063292
0.518138 -0.096715 0.100783
0.529886 -0.029384 0.041722
0.554240 0.028929 0.112420
0.533536 0.019890 0.031364
0.544514 -0.049487 0.122546
0.498690 0.020014 0.080965
0.567071 0.033003 0.098167
0.575685 0.008117 0.070357
0.555266 -0.059659 0.070308
0.553798 0.062690 0.086751
0.501897 -0.036097 0.097728
0.527139 0.035468 0.035191
0.533950 -0.081532 0.061483
0.558347 -0.063262 0.093662
0.530560 0.034445 0.115494
0.509615 -0.085297 0.099340
0.535797 0.050175 0.105990
0.511084 -0.027247 0.056009
0.524580 0.045061 0.107454
0.513862 0.059762 0.087369
0.559598 -0.027573 0.053670
0.511247 0.033639 0.106074
0.500163 0.034089 0.074487
0.568879 0.017604 0.102768
0.545551 -0.083059 0.073885
0.553601 0.065320 0.057013
0.534420 -0.075449 0.117992
0.505267 -0.058415 0.100441
0.511105 -0.038902 0.119729
0.542582 -0.016217 0.037100
0.511384 0.043340 0.050328
0.543990 -0.043713 0.049992
0.506252 -0.046941 0.072330
0.573332 0.030261 0.069275
0.529778 -0.079187 0.117469
0.512056 -0.051828 0.062632
0.554290 -0.001477 0.120821
0.502132 -0.003440 0.066319
0.502312 -0.038951 0.090422
0.541527 -0.012420 0.128142
0.548919 -0.082908 0.090916
0.564003 -0.042246 0.074068
0.541428 -0.047010 0.124876
0.558428 -0.026783 0.117080
0.516165 0.030273 0.041139
0.527557 -0.028340 0.042080
0.517485 -0.070401 0.116393
0.507666 -0.060436 0.072612
0.510511 0.028447 0.108285
0.568069 -0.015127 0.106325
0.501153 -0.001794 0.069271
0.521281 -0.062981 0.121904
0.549241 0.043014 0.107141
0.510289 0.058593 0.080058
0.530578 0.048023 0.107050
0.506711 -0.023115 0.114897
0.501375 -0.032833 0.094230
0.546101 -0.024420 0.126083
0.573225 -0.001017 0.097989
0.528802 0.067607 0.053103
0.563649 -0.050112 0.085794
0.533914 0.072941 0.081168
0.559527 -0.035712 0.059180
0.561411 -0.053591 0.080110
0.544835 0.055760 0.100208
0.508839 -0.018207 0.118313
0.518195 -0.012162 0.043019
0.551059 0.050450 0.101028
0.514372 0.030426 0.110934
0.507772 -0.075895 0.074450
0.553010 0.067542 0.080051
0.547103 -0.062904 0.061562
0.554150 0.047326 0.101251
0.559179 -0.048522 0.109296
0.553606 0.020980 0.035743
0.516747 -0.093928 0.102134
0.515383 -0.084098 0.107707
0.563744 -0.031489 0.109536
0.569267 0.014433 0.103245
0.559263 0.035477 0.043022
0.562852 -0.038547 0.067625
0.503844 -0.031652 0.108376
0.567879 0.014482 0.050099
0.505536 0.010381 0.108790
0.504984 -0.053268 0.079321
0.541649 -0.010941 0.035419
0.531026 -0.042773 0.047238
0.507795 0.052924 0.064345
0.541298 0.001092 0.126510
0.543364 0.009335 0.031898
0.520374 0.046007 0.042429
0.557719 -0.011461 0.118628
0.503562 0.012207 0.058755
0.552328 0.064727 0.085767
0.524553 -0.101719 0.069092
0.520124 -0.029447 0.046678
0.500782 0.001653 0.069705
0.507730 -0.044952 0.068215
0.556625 -0.067566 0.091909
0.520851 0.065677 0.087029
0.575040 -0.008952 0.084364
0.562936 -0.009635 0.048801
0.565260 0.021302 0.106290
0.565625 -0.040920 0.099103
0.530245 -0.070737 0.057190
0.536631 0.006323 0.126216
0.500709 0.007406 0.068547
0.519910 -0.075624 0.059635
0.524347 -0.065784 0.056403
0.506068 -0.069754 0.094967
0.547040 -0.075654 0.107361
0.542027 0.050875 0.104642
0.542293 -0.084802 0.104258
0.551352 0.059946 0.048939
0.498670 0.008057 0.080164
0.562136 0.019504 0.043078
0.548061 0.041796 0.108459
0.535869 -0.019850 0.037502
0.534802 0.068552 0.052217
0.505293 0.013671 0.054868
