ply
format ascii 1.0
element vertex 1024
property float x
property float y
property float z
end_header
0.607372 0.033187 0.038537
0.554988 0.005306 0.077447
0.601632 -0.038455 0.058765
0.600375 0.041420 0.076716
0.587480 -0.017179 0.009617
0.578969 0.089258 0.036609
0.531684 0.048123 0.021388
0.557895 0.050692 0.084838
0.552776 -0.043459 0.045238
0.554992 0.097370 0.058817
0.597971 -0.039997 0.014435
0.612886 -0.069124 0.038599
0.533324 0.077070 0.045987
0.570922 -0.018866 0.002872
0.577487 -0.051738 0.055929
0.572354 0.002691 0.079464
0.579201 0.039119 0.086156
0.531594 -0.007795 0.023173
0.612339 0.019578 0.053859
0.525772 0.037538 0.029540
0.566227 0.046833 0.086639
0.579645 -0.060902 0.049724
0.550210 0.010595 0.002401
0.527028 0.056189 0.047153
0.545306 0.084486 0.028662
0.590094 -0.075915 0.025492
0.584561 -0.074104 0.031089
0.526023 0.046732 0.034488
0.599975 0.011337 0.075225
0.599246 -0.072444 0.042336
0.562574 0.006144 0.001792
0.611148 -0.025415 0.050327
0.580803 -0.072539 0.022700
0.596430 -0.013735 0.015928
0.538269 -0.018671 0.049271
0.608619 0.040715 0.045780
0.577824 -0.015058 0.073014
0.594182 -0.034183 0.012667
0.547126 0.030415 0.004792
0.613399 -0.033652 0.033576
0.546927 0.022766 0.078921
0.611581 0.018631 0.045926
0.567269 0.028066 0.085777
0.556850 -0.049762 0.015623
0.545533 0.003042 0.071806
0.531865 0.007549 0.058349
0.588670 0.050714 0.018741
0.605802 0.040115 0.037585
0.601694 -0.020228 0.063791
0.553463 0.074226 0.016505
0.570811 -0.058821 0.046502
0.562377 -0.000093 0.077508
0.548280 -0.019115 0.061911
0.606119 0.053500 0.062045
0.564432 -0.000599 0.077664
0.542448 -0.026224 0.012836
0.594922 0.073463 0.039471
0.540106 0.033680 0.076292
0.605447 0.001349 0.067583
0.597567 0.071997 0.044413
0.587352 -0.055403 0.010473
0.613457 -0.070263 0.032849
0.600804 0.058470 0.071004
0.559394 0.051931 0.085090
0.545312 0.017210 0.076549
0.600763 0.002061 0.021860
0.543772 0.091310 0.056967
0.591299 -0.057039 0.011245
0.527292 0.051263 0.033317
0.605240 0.053034 0.043820
0.526466 0.016999 0.050619
0.541693 -0.009232 0.061880
0.535252 0.060545 0.023295
0.549884 -0.002294 0.002376
0.556458 -0.032819 0.006554
0.580050 0.064545 0.016506
0.613418 -0.029738 0.042490
0.605120 0.054541 0.064862
0.548178 0.073644 0.075210
0.542059 0.068618 0.020296
0.543432 0.037804 0.007523
0.588329 -0.075507 0.024909
0.550164 -0.024143 0.060159
0.597959 -0.033878 0.062067
0.541145 0.089412 0.044722
0.600610 -0.075434 0.036032
0.549826 0.039446 0.082276
0.611341 0.027787 0.058965
0.592185 -0.049421 0.058052
0.612013 0.001115 0.043633
0.562501 0.099509 0.049099
0.611278 -0.009629 0.038771
0.526239 0.009434 0.037099
0.575599 -0.013115 0.073768
0.560862 0.031796 0.003863
0.538751 0.069734 0.024267
0.551211 0.097237 0.047601
0.537620 0.016643 0.008375
0.604650 0.021598 0.030455
0.547760 0.060189 0.078854
0.545101 0.043573 0.079671
0.535548 0.059894 0.022533
0.593970 -0.013722 0.070448
0.567724 -0.058987 0.043347
0.599463 -0.016638 0.018207
0.615175 -0.067942 0.031211
0.568108 0.092058 0.068093
0.594649 -0.042321 0.012414
0.584199 0.065461 0.019740
0.565643 0.099235 0.049223
0.549242 0.043701 0.081845
0.602374 0.054368 0.037484
0.586184 0.044388 0.084346
0.598720 -0.054323 0.054615
0.546308 -0.036806 0.042552
0.607781 0.049857 0.056014
0.542109 -0.008149 0.063036
0.553821 0.007962 0.077925
0.566128 -0.026377 0.067019
0.568224 -0.010344 0.002039
0.612433 -0.001307 0.046315
0.576985 -0.061482 0.047834
0.531746 0.016212 0.062775
0.573438 -0.026873 0.004091
0.559568 -0.056262 0.020221
0.602383 0.051348 0.035751
0.587531 -0.033555 0.065183
0.547998 -0.039305 0.017768
0.553501 -0.023536 0.004571
0.582969 0.090258 0.046393
0.595089 0.078259 0.053758
0.553210 -0.005809 0.072242
0.525689 0.026877 0.052829
0.598086 -0.065196 0.048997
0.572389 -0.053128 0.052945
0.563061 0.037905 0.086460
0.546919 -0.031967 0.050361
0.554724 0.030247 0.003529
0.536411 0.073331 0.063484
0.533074 0.052118 0.068459
0.570751 0.067773 0.082525
0.584850 -0.033796 0.065377
0.564459 0.097112 0.040614
0.612188 -0.012965 0.047334
0.587412 0.073648 0.027586
0.568672 0.020612 0.084413
0.549899 0.064245 0.079097
0.588850 0.084088 0.044226
0.562972 0.096391 0.063055
0.560740 -0.002492 0.001480
0.601269 -0.041956 0.057938
0.568251 0.090146 0.030058
0.596433 0.074848 0.061660
0.559463 0.091990 0.068913
0.560371 0.020895 0.083399
0.547238 0.056722 0.079199
0.580855 0.021331 0.007734
0.583835 0.087769 0.041148
0.579054 -0.047419 0.008205
0.528861 0.050829 0.028338
0.544085 -0.035514 0.023982
0.590716 -0.053690 0.056243
0.602474 -0.023382 0.062288
0.528645 0.000387 0.038408
0.602270 -0.058222 0.051904
0.541415 -0.013439 0.058713
0.604982 0.056312 0.046608
0.573616 -0.020491 0.070818
0.529363 0.004743 0.020643
0.569659 0.002595 0.002406
0.570810 -0.009564 0.074938
0.560163 0.090779 0.029417
0.585979 -0.037175 0.063906
0.552763 -0.013035 0.002743
0.604513 0.057168 0.063705
0.542713 -0.032293 0.040300
0.566902 -0.011926 0.001956
0.554999 0.012598 0.002071
0.573616 0.096836 0.050448
0.588885 0.071770 0.027877
0.560942 -0.042366 0.008742
0.576523 0.067810 0.081983
0.596581 0.063038 0.073575
0.607970 -0.020963 0.027891
0.585022 0.017474 0.009915
0.607202 0.014242 0.068857
0.577602 0.081972 0.025656
0.533116 0.018961 0.065830
0.554475 -0.016710 0.002962
0.527002 0.016463 0.024540
0.566901 0.092835 0.067449
0.582048 -0.035191 0.064908
0.604702 0.059228 0.050817
0.582654 -0.069335 0.041496
0.575801 0.019210 0.005321
0.532427 0.063022 0.063082
0.541845 0.062914 0.017693
0.590605 0.010742 0.079714
0.565548 0.073422 0.015433
0.595593 0.076614 0.060239
0.585077 0.083167 0.034933
0.539548 0.025387 0.007942
0.525158 0.016898 0.032969
0.538429 0.051145 0.074256
0.607365 0.009711 0.067771
0.590966 -0.024149 0.011372
0.525479 0.036502 0.053141
0.573352 -0.067392 0.019525
0.608646 -0.073719 0.033443
0.558897 -0.010920 0.072225
0.573989 -0.057954 0.049618
0.599617 0.057077 0.033843
0.567158 -0.052210 0.050540
0.588198 0.014261 0.081270
0.605136 0.054191 0.065179
0.539915 0.076251 0.027174
0.601258 -0.061276 0.050775
0.534870 -0.012775 0.047227
0.581221 0.086928 0.067835
0.593981 -0.039479 0.012240
0.567036 -0.058478 0.043308
0.599462 0.071239 0.052685
0.555632 -0.036823 0.008405
0.552563 0.088191 0.027944
0.611301 -0.017822 0.036393
0.586059 -0.028946 0.008434
0.533292 -0.009957 0.018312
0.605109 0.011329 0.029331
0.527325 0.012714 0.050270
0.608320 0.021280 0.037262
0.603804 -0.039130 0.057188
0.578740 0.093912 0.049434
0.594128 0.065809 0.074471
0.526480 0.021199 0.025461
0.564501 -0.036454 0.060905
0.598193 -0.061208 0.013432
0.557432 0.072452 0.079636
0.580488 -0.070528 0.036912
0.526037 0.017193 0.027703
0.578222 -0.037290 0.063824
0.566969 0.046876 0.007138
0.582165 0.087990 0.065094
0.526363 0.013650 0.047143
0.586965 0.012372 0.010793
0.587827 0.037839 0.084111
0.612599 -0.021594 0.041604
0.594513 0.004988 0.015946
0.559514 0.004608 0.001606
0.569957 -0.013858 0.002409
0.575242 -0.044281 0.007362
0.581984 -0.065842 0.014932
0.601220 0.028480 0.076363
0.617001 -0.061462 0.037607
0.539321 0.073828 0.067480
0.565706 0.094782 0.065111
0.526376 0.039650 0.056081
0.584561 0.078584 0.028670
0.600558 0.067772 0.047348
0.613877 -0.066873 0.039906
0.571106 0.043321 0.007344
0.595402 0.043184 0.080352
0.553452 -0.047955 0.019134
0.557561 0.079143 0.018640
0.528393 0.059476 0.037843
0.528995 0.000409 0.026312
0.569605 0.041778 0.086973
0.596618 -0.007187 0.016690
0.609489 0.025738 0.065660
0.606304 0.031121 0.035635
0.594938 -0.046131 0.012318
0.560172 -0.057502 0.031609
0.596632 0.072621 0.042568
0.598848 0.072203 0.051705
0.530168 0.041305 0.064955
0.549772 0.070602 0.016154
0.577880 -0.012585 0.073944
0.613394 -0.058714 0.044965
0.616897 -0.049670 0.034865
0.548485 -0.004243 0.002802
0.610327 -0.016753 0.053812
0.594681 0.078229 0.049036
0.547356 0.017329 0.003396
0.574271 0.086006 0.027781
0.604843 -0.047790 0.017654
0.575751 0.037455 0.086591
0.528437 0.011467 0.052868
0.597594 0.038864 0.024323
0.583313 0.008346 0.008021
0.569428 0.094536 0.037735
0.604430 0.052926 0.041292
0.528997 0.043080 0.023636
0.574244 -0.068236 0.033079
0.596554 -0.002318 0.073216
0.544748 -0.006095 0.066732
0.558583 0.093107 0.032710
0.592277 0.047806 0.081610
0.559024 -0.019989 0.002870
0.589188 0.075842 0.072633
0.534746 0.067611 0.064593
0.561689 -0.054698 0.042155
0.607293 -0.047103 0.052800
0.611165 -0.023293 0.050428
0.546233 -0.036194 0.017094
0.549798 -0.043385 0.038554
0.598686 -0.058799 0.052593
0.617113 -0.051169 0.034450
0.577635 0.024835 0.085085
0.615205 -0.059034 0.024528
0.616617 -0.054354 0.029204
0.569897 0.090531 0.069409
0.550048 0.075516 0.075530
0.566130 0.098563 0.045721
0.599575 0.058801 0.034814
0.585069 0.081285 0.071532
0.565726 0.054901 0.008793
0.542705 0.072811 0.071595
0.535202 0.074801 0.059778
0.610356 0.032711 0.047564
0.586501 0.072209 0.025457
0.588744 -0.069637 0.016781
0.603324 0.026268 0.074335
0.525815 0.014714 0.030139
0.564287 0.097544 0.041606
0.610251 0.030423 0.045734
0.608050 -0.028153 0.025803
0.526797 0.053952 0.049868
0.533190 0.011764 0.063090
0.590300 -0.037960 0.063045
0.538631 0.085116 0.040342
0.543027 0.060741 0.015807
0.591021 -0.027759 0.011202
0.531585 0.039921 0.067239
0.544860 -0.037337 0.032138
0.574575 -0.018936 0.071500
0.609615 -0.054951 0.049302
0.530098 0.037374 0.064629
0.575585 -0.057393 0.011571
0.541664 0.045367 0.010564
0.527657 0.010699 0.049607
0.567142 0.098067 0.044692
0.613126 -0.045147 0.046685
0.549051 -0.028352 0.056083
0.525593 0.046134 0.036390
0.547284 0.016098 0.077375
0.610053 -0.041151 0.051098
0.607601 -0.041609 0.021345
0.572240 0.015237 0.003862
0.590484 0.015203 0.013770
0.606740 -0.045447 0.053575
0.563329 0.025550 0.003354
0.575123 -0.002385 0.003615
0.523985 0.031334 0.044430
0.575007 0.094260 0.060289
0.550332 -0.045315 0.024894
0.572415 -0.017059 0.072116
0.537963 0.051737 0.015809
0.565973 0.087898 0.026562
0.582693 -0.071262 0.037736
0.614707 -0.036669 0.038182
0.537518 0.017685 0.008597
0.571345 0.092778 0.065847
0.532384 0.066021 0.060773
0.559051 0.045773 0.006239
0.593539 -0.026370 0.012800
0.553553 0.003925 0.076414
0.560022 0.087769 0.025864
0.598655 0.038441 0.025499
0.595209 -0.043033 0.059967
0.532409 0.016496 0.014021
0.528981 0.050247 0.027652
0.570012 0.027619 0.085833
0.528923 0.062847 0.040081
0.609281 0.043109 0.057269
0.575176 0.093510 0.061782
0.531417 0.021352 0.064048
0.588327 0.073003 0.028162
0.561036 0.047041 0.006543
0.588593 -0.040592 0.062252
0.607243 -0.041756 0.020988
0.612139 -0.021981 0.037394
0.543107 0.090944 0.055999
0.584453 -0.070452 0.040915
0.526630 0.023998 0.054932
0.571638 -0.032039 0.065483
0.559258 -0.009400 0.073013
0.533300 -0.013948 0.025580
0.564078 -0.012687 0.072804
0.539215 0.046771 0.075493
0.537690 0.022906 0.072168
0.608346 -0.070733 0.041456
0.595903 0.075141 0.045194
0.574811 0.090831 0.035117
0.579035 -0.045273 0.059988
0.552540 0.008148 0.002012
0.610586 -0.028049 0.029890
0.532494 0.061818 0.063937
0.524200 0.038424 0.042515
0.543785 -0.035546 0.033003
0.544291 0.091461 0.041582
0.545882 0.092133 0.040092
0.579944 0.089794 0.064187
0.591767 0.079876 0.064362
0.605733 0.014359 0.030911
0.538014 0.063633 0.070879
0.560173 0.017006 0.002366
0.568231 -0.027099 0.003719
0.612575 0.001450 0.050075
0.607486 0.024656 0.069273
0.613471 -0.029392 0.038345
0.589413 -0.033839 0.064768
0.547543 0.090380 0.034338
0.608398 0.046511 0.059121
0.528021 0.008230 0.023749
0.537490 0.083759 0.054238
0.544329 0.085031 0.030252
0.563334 -0.015311 0.071513
0.571799 -0.052653 0.053023
0.532951 -0.001382 0.014105
0.553780 0.067033 0.080139
0.602839 -0.026849 0.061067
0.600961 0.028054 0.076572
0.566475 0.087120 0.025809
0.540156 0.055278 0.015534
0.551281 0.087558 0.027838
0.571153 0.092865 0.035845
0.588937 -0.022530 0.069018
0.527605 0.018862 0.055380
0.592892 0.044827 0.020909
0.525874 0.029032 0.054017
0.555134 0.017095 0.081083
0.564998 0.013804 0.002469
0.610342 -0.004648 0.057932
0.527661 0.030553 0.022811
0.586763 -0.049497 0.058400
0.576078 -0.033864 0.065222
0.585288 -0.059052 0.052816
0.539349 -0.014250 0.009769
0.572901 0.007041 0.080850
0.554843 0.059064 0.082465
0.549100 -0.001791 0.071907
0.568308 -0.047216 0.008775
0.594044 -0.036175 0.012481
0.564547 0.010125 0.081253
0.531780 0.021409 0.064626
0.587407 0.022553 0.012314
0.614008 -0.066502 0.025008
0.551800 0.031071 0.082671
0.608040 0.047445 0.049943
0.542460 0.088981 0.058817
0.529697 0.008063 0.053727
0.608453 0.046784 0.052406
0.575192 0.057074 0.011703
0.585802 -0.006657 0.008938
0.579017 0.049925 0.011574
0.561622 0.062114 0.083502
0.525300 0.046083 0.038679
0.577273 0.004950 0.004730
0.612629 -0.022819 0.039928
0.561170 -0.032013 0.062114
0.525535 0.017664 0.029839
0.605592 0.051540 0.043602
0.568205 0.094984 0.063908
0.546161 0.094094 0.054416
0.537891 0.072517 0.027081
0.541519 0.042715 0.077530
0.604139 0.052464 0.069019
0.535949 0.003503 0.009205
0.528621 0.062678 0.048370
0.574701 -0.010390 0.074796
0.528667 0.035010 0.021573
0.525627 0.012790 0.034767
0.608052 0.039754 0.065966
0.579281 0.086071 0.031832
0.552815 0.054479 0.082428
0.577824 -0.042537 0.007090
0.609072 -0.041084 0.052218
0.612137 0.021884 0.055509
0.548758 0.070278 0.076768
0.590844 -0.075812 0.032782
0.551876 0.089464 0.029824
0.590576 -0.038436 0.062812
0.602323 0.065402 0.052039
0.556387 0.020211 0.082236
0.596743 -0.058061 0.012626
0.586287 -0.054950 0.010285
0.590325 0.015313 0.080884
0.576423 0.030903 0.086056
0.600514 0.018583 0.076152
0.528230 0.003861 0.043509
0.535785 -0.019115 0.039880
0.550621 0.004912 0.075493
0.605226 0.015102 0.071337
0.559738 -0.045475 0.051018
0.587455 0.037323 0.084230
0.616265 -0.050828 0.040814
0.586395 -0.021905 0.008782
0.580755 0.076506 0.077473
0.583695 0.035525 0.085230
0.594179 -0.016923 0.013970
0.579414 0.086113 0.032029
0.528398 0.054303 0.032253
0.594306 0.043705 0.080964
0.538176 -0.000578 0.063210
0.601813 -0.028975 0.061287
0.551782 0.018457 0.002684
0.599571 -0.041461 0.058912
0.547456 -0.011092 0.066041
0.559255 0.024665 0.002964
0.596662 -0.071285 0.018366
0.530933 0.068772 0.052965
0.536806 -0.013880 0.012973
0.572341 -0.022284 0.069976
0.564510 0.091453 0.069468
0.553482 -0.004046 0.073155
0.565742 0.091231 0.069552
0.557369 -0.028021 0.062557
0.611718 -0.029374 0.031616
0.540704 -0.012914 0.008017
0.609683 -0.030728 0.052690
0.604566 0.059396 0.050182
0.595647 0.050679 0.025442
0.537750 0.084453 0.053623
0.586593 0.053600 0.017793
0.550850 -0.046419 0.030308
0.542860 0.076496 0.024197
0.568021 0.064167 0.011974
0.600920 -0.017391 0.065206
0.571589 -0.027972 0.004031
0.615095 -0.045649 0.030359
0.541980 0.067359 0.073153
0.550822 -0.044041 0.040204
0.590636 0.067422 0.076543
0.567936 -0.063545 0.019078
0.608070 -0.032341 0.024535
0.602870 0.054107 0.070418
0.548788 0.074699 0.075159
0.590461 0.083671 0.057666
0.607773 0.044756 0.064295
0.554717 0.008225 0.001868
0.614256 -0.054033 0.044784
0.589281 -0.015717 0.010819
0.527722 0.046175 0.028150
0.601152 0.031360 0.076463
0.584643 -0.074577 0.027522
0.525896 0.050833 0.042283
0.534850 0.025047 0.069575
0.604569 -0.031158 0.020851
0.570781 0.024161 0.004446
0.538420 -0.026144 0.032564
0.593795 -0.047387 0.011739
0.611116 -0.025731 0.032062
0.537025 -0.002630 0.060256
0.558137 0.048720 0.085114
0.559126 0.059911 0.083548
0.615413 -0.046661 0.042208
0.586147 -0.064430 0.013620
0.568603 0.040295 0.006237
0.575527 0.091860 0.064639
0.599114 0.071088 0.048871
0.559953 0.007753 0.001763
0.566902 -0.033056 0.004909
0.600697 0.054530 0.034328
0.530715 0.002652 0.017624
0.586089 -0.025619 0.008498
0.551318 -0.016741 0.065574
0.541446 0.061517 0.074431
0.556495 -0.042850 0.010926
0.601114 0.068030 0.052565
0.616623 -0.064247 0.030071
0.611753 0.013050 0.059465
0.592107 -0.052995 0.011073
0.553376 0.095871 0.061322
0.583847 0.090024 0.055221
0.591823 0.066743 0.028046
0.577042 0.013285 0.005235
0.588890 0.039950 0.016436
0.574689 0.070030 0.016244
0.538397 0.070297 0.025021
0.560812 0.038567 0.004882
0.600018 0.044398 0.076720
0.564850 0.091618 0.069255
0.528169 0.046207 0.060273
0.545905 0.093691 0.055409
0.601255 0.067709 0.056263
0.602682 0.020526 0.027228
0.589693 0.084237 0.047800
0.600447 0.064084 0.041161
0.536569 0.004559 0.064172
0.601538 -0.017238 0.064776
0.566923 -0.038107 0.060887
0.542683 -0.027588 0.048180
0.539885 0.052349 0.014458
0.524819 0.037327 0.033647
0.603930 -0.007013 0.066063
0.605459 0.041535 0.037424
0.583005 -0.065058 0.047125
0.536753 0.013475 0.008752
0.580841 -0.061295 0.049855
0.597151 0.028260 0.021689
0.537420 0.060492 0.020673
0.575897 0.027682 0.006335
0.533115 0.076282 0.043410
0.576409 0.053097 0.085335
0.560242 0.012058 0.002025
0.553042 0.072640 0.078055
0.565813 -0.042692 0.007666
0.615035 -0.066711 0.037755
0.526962 0.018371 0.053218
0.594335 -0.024553 0.013435
0.608588 0.000789 0.063314
0.587479 -0.059309 0.052956
0.586194 0.086329 0.042884
0.584817 0.082744 0.033949
0.600847 -0.021794 0.018792
0.526714 0.007418 0.034285
0.542975 -0.024455 0.052055
0.597077 -0.002709 0.072790
0.582738 -0.016303 0.006869
0.601366 0.067409 0.056744
0.543431 0.037856 0.078927
0.592267 0.004850 0.077518
0.608899 -0.037090 0.052969
0.591855 0.051089 0.021611
0.564301 0.096590 0.062451
0.611185 -0.013390 0.052414
0.540597 -0.027190 0.043515
0.547522 -0.041442 0.032301
0.559578 -0.051358 0.014325
0.538909 0.022330 0.008046
0.598039 -0.028771 0.063636
0.596329 0.055516 0.077356
0.608624 0.010825 0.066197
0.603609 -0.057253 0.015349
0.583428 0.048364 0.084697
0.586911 0.059394 0.081475
0.557132 -0.054656 0.027906
0.541383 0.006692 0.005053
0.601692 0.048579 0.033163
0.604092 0.046893 0.036927
0.587512 0.086467 0.047616
0.552605 0.009297 0.077878
0.532245 0.032453 0.067430
0.571827 0.038678 0.086902
0.529435 0.026090 0.061927
0.608621 0.023306 0.038418
0.535410 -0.008824 0.052614
0.606066 -0.050344 0.052857
0.526710 0.012796 0.047906
0.595114 -0.064668 0.049507
0.551283 -0.045934 0.036687
0.595816 -0.065559 0.014336
0.585623 0.033509 0.084669
0.575074 0.091077 0.035786
0.559918 -0.033036 0.005762
0.529600 0.017605 0.059486
0.543874 0.005384 0.071624
0.560950 0.086573 0.073591
0.609217 -0.006350 0.033879
0.583649 0.021149 0.009390
0.610800 -0.016033 0.052814
0.532552 0.074546 0.041990
0.531728 0.023624 0.065123
0.554137 0.096547 0.040592
0.535319 0.067573 0.065598
0.551314 0.047984 0.007604
0.607400 -0.071337 0.041298
0.549976 0.071719 0.016591
0.555486 -0.049676 0.017519
0.556326 0.085256 0.023773
0.602723 -0.023575 0.062031
0.594653 0.045328 0.022767
0.607209 -0.005693 0.062842
0.596748 0.067956 0.036845
0.535200 0.079010 0.038956
0.588887 0.025942 0.083072
0.538291 0.075707 0.064820
0.546762 -0.036964 0.017029
0.576297 0.064697 0.082884
0.570036 0.007701 0.080980
0.531171 -0.006610 0.041214
0.566439 -0.005662 0.076012
0.570070 0.096650 0.059476
0.563575 -0.002864 0.076678
0.566590 -0.058824 0.042255
0.567024 0.087245 0.073165
0.599335 -0.058835 0.052431
0.586730 -0.017003 0.071448
0.535893 -0.003794 0.010364
0.528543 0.001350 0.040385
0.552484 0.025875 0.082135
0.598562 0.071982 0.059924
0.590624 0.006378 0.078535
0.615248 -0.040253 0.035867
0.570627 0.016594 0.083521
0.604611 0.000600 0.068197
0.546937 0.094955 0.048652
0.575340 -0.007500 0.075869
0.585674 0.084223 0.067270
0.553607 0.097422 0.057196
0.543031 0.016682 0.004863
0.527035 0.018780 0.053693
0.568120 0.035481 0.086748
0.563325 0.045936 0.086448
0.612280 0.008653 0.056308
0.593707 -0.065058 0.013853
0.545345 -0.023548 0.008301
0.549500 0.096514 0.052213
0.552323 0.058802 0.081485
0.533723 0.075198 0.055038
0.572907 -0.002374 0.002961
0.594531 -0.005219 0.015142
0.555648 -0.021310 0.065594
0.599453 -0.034541 0.061124
0.546753 -0.030927 0.051193
0.590042 -0.073524 0.020372
0.560536 0.099516 0.051029
0.590841 -0.032485 0.064979
0.605324 0.055233 0.063177
0.573139 -0.008939 0.075309
0.604537 0.026470 0.031244
0.571690 -0.062713 0.042077
0.588175 0.077542 0.032281
0.577594 -0.008319 0.004430
0.549474 0.055339 0.010392
0.593799 0.079882 0.056688
0.608027 -0.009024 0.060459
0.541134 -0.013841 0.058072
0.586693 0.082843 0.037038
0.557669 0.084984 0.073973
0.572500 -0.048158 0.056606
0.613511 -0.054976 0.045629
0.533025 0.040803 0.016598
0.544252 0.060175 0.014731
0.551733 0.031157 0.003897
0.609531 -0.049952 0.050427
0.580227 -0.018812 0.005627
0.570500 0.093019 0.035687
0.559649 -0.047712 0.048662
0.603974 0.060028 0.047864
0.525761 0.011965 0.035199
0.575672 0.032259 0.086265
0.552699 0.045134 0.006577
0.562507 -0.021467 0.068403
0.536910 -0.019918 0.043567
0.596168 0.073533 0.064855
0.599753 -0.046315 0.057256
0.547938 -0.035993 0.013767
0.529416 0.021311 0.018998
0.586582 0.058720 0.019263
0.592672 0.070102 0.073286
0.558945 -0.002249 0.075892
0.553398 -0.040440 0.049698
0.590091 0.061750 0.079235
0.612788 -0.055724 0.021845
0.614790 -0.037443 0.036708
0.613545 -0.032986 0.034623
0.571138 0.007955 0.081101
0.529358 0.047223 0.062961
0.612146 -0.008577 0.049787
0.546182 0.064656 0.015415
0.584898 -0.045404 0.008681
0.574739 -0.056909 0.011486
0.544981 -0.019687 0.007073
0.525378 0.037615 0.052634
0.574668 0.077980 0.078381
0.554404 -0.046108 0.015019
0.565756 0.046458 0.006863
0.532636 0.069713 0.058217
0.594561 0.055191 0.025791
0.524013 0.035732 0.041262
0.602602 0.032981 0.029607
0.561306 -0.042795 0.008793
0.551349 -0.031492 0.055759
0.557743 0.086181 0.024421
0.578490 -0.031553 0.066413
0.528482 0.051616 0.059315
0.604907 0.053247 0.042924
0.604465 -0.059251 0.015698
0.547831 0.093647 0.040598
0.604839 0.048237 0.039280
0.532178 -0.004565 0.048535
0.571811 0.006064 0.080531
0.596575 -0.062941 0.013442
0.526329 0.018655 0.026284
0.547790 0.047182 0.080816
0.604376 0.017275 0.029192
0.570228 -0.066141 0.030706
0.541391 -0.030007 0.040407
0.606472 0.041825 0.039879
0.597098 -0.074724 0.038639
0.595683 -0.000496 0.074313
0.546803 0.052855 0.010570
0.551827 -0.019821 0.004153
0.544396 -0.026353 0.052351
0.541397 0.033979 0.077334
0.596683 -0.066964 0.047754
0.577102 0.087169 0.031320
0.557597 0.060571 0.083011
0.550042 -0.042062 0.042169
0.560125 -0.028122 0.004402
0.548285 -0.041835 0.022889
0.565370 -0.032892 0.063359
0.616978 -0.058686 0.038952
0.579048 -0.067936 0.017151
0.606668 -0.007373 0.028892
0.611526 -0.012659 0.039016
0.525466 0.042353 0.033553
0.524736 0.018103 0.040690
0.601412 0.065320 0.046077
0.572199 -0.067986 0.023351
0.584715 0.089507 0.052271
0.551995 0.063605 0.012392
0.553188 -0.028539 0.006156
0.525192 0.015733 0.041826
0.580632 -0.023118 0.069893
0.587303 0.077813 0.031341
0.537470 0.054498 0.072823
0.569829 0.057881 0.084948
0.565669 -0.045284 0.008589
0.616957 -0.050197 0.037027
0.555371 -0.013506 0.002378
0.587293 -0.059433 0.011475
0.564128 0.046010 0.086541
0.537581 -0.021992 0.042282
0.567192 -0.048846 0.053498
0.525951 0.037011 0.054843
0.560986 -0.006483 0.001522
0.576961 -0.067932 0.038538
0.595646 0.065986 0.033098
0.554304 -0.004053 0.073515
0.598872 0.006616 0.074777
0.609562 0.041065 0.058762
0.601322 0.017590 0.024840
0.555825 0.098704 0.053203
0.543580 0.086000 0.064184
0.599419 -0.002396 0.071461
0.601737 0.066772 0.053031
0.590037 0.019317 0.081748
0.530165 0.013815 0.017327
0.569987 0.026965 0.085720
0.545887 0.042223 0.080205
0.578502 0.093332 0.057343
0.590026 0.084109 0.048953
0.571202 -0.034556 0.005152
0.537996 0.018636 0.071385
0.539563 -0.027035 0.039474
0.611841 -0.000581 0.055067
0.611793 -0.064478 0.020996
0.532555 -0.012120 0.026753
0.561302 0.004888 0.079063
0.588720 0.021169 0.013155
0.603170 -0.026903 0.060779
0.609358 0.040225 0.048790
0.538657 0.056171 0.017249
0.576153 -0.042508 0.060958
0.600465 0.068853 0.058591
0.571349 -0.039520 0.061510
0.574923 0.039656 0.007808
0.608325 0.000478 0.063607
0.548459 0.033102 0.081448
0.535002 0.021808 0.011554
0.542127 -0.011934 0.060582
0.584194 -0.029907 0.067007
0.593596 -0.062030 0.051350
0.611004 0.032716 0.052208
0.539156 0.045024 0.012116
0.560095 -0.033528 0.060602
0.540021 0.072735 0.024641
0.607893 -0.066660 0.045429
0.571601 0.014369 0.003624
0.580667 0.082758 0.073154
0.543505 -0.013887 0.006280
0.581358 0.059618 0.015570
0.602337 0.059503 0.067311
0.596754 0.026322 0.020940
0.524043 0.029609 0.044828
0.537290 0.019341 0.070886
0.597214 -0.068678 0.046337
0.538785 -0.010308 0.008958
0.539578 0.019148 0.007158
0.559109 0.036432 0.004441
0.535624 -0.008547 0.012216
0.554371 0.030399 0.083502
0.567843 0.032602 0.086449
0.540180 0.082371 0.062464
0.570872 0.071047 0.015425
0.588308 0.012069 0.080710
0.602994 -0.061415 0.050225
0.539663 0.074713 0.026346
0.581571 -0.062288 0.049241
0.555061 0.017572 0.002386
0.545884 0.093681 0.055381
0.613019 -0.027640 0.037103
0.609877 -0.036521 0.025513
0.593492 -0.001774 0.014576
0.581531 0.019995 0.083737
0.608062 -0.007368 0.061024
0.563397 0.049702 0.007275
0.603238 -0.068955 0.018221
0.596354 0.070467 0.068243
0.606821 0.035834 0.069434
0.540648 -0.014959 0.056620
0.562390 0.064763 0.082956
0.601842 0.016822 0.025403
0.588008 -0.071082 0.018015
0.611899 0.006528 0.057580
0.524434 0.040679 0.044341
0.604320 0.055709 0.066082
0.543627 -0.035392 0.030522
0.579276 0.048401 0.011365
0.529101 0.046288 0.062538
0.555560 0.028291 0.083583
0.585107 -0.033438 0.065500
0.536092 0.079532 0.056726
0.580319 -0.009960 0.005657
0.599543 0.070575 0.058704
0.608878 -0.048934 0.051164
0.565268 -0.043273 0.056694
0.531338 0.048686 0.022231
0.589841 -0.058537 0.011354
0.532176 0.065356 0.031537
0.608171 0.007733 0.034195
0.537713 0.061763 0.021023
0.555139 0.082508 0.021624
0.587498 0.000810 0.077599
0.548467 0.053178 0.010033
0.579842 0.063280 0.015898
0.528953 0.030133 0.061780
0.593562 -0.055268 0.055169
0.560186 0.089631 0.071176
0.559787 -0.057548 0.023843
0.583049 -0.032480 0.007154
0.558503 -0.019598 0.002856
0.605930 0.018401 0.070971
0.591992 0.076592 0.037583
0.602621 -0.011363 0.065735
0.602632 -0.014517 0.021876
0.551048 0.050078 0.082172
0.563497 -0.060299 0.020040
0.609431 -0.017586 0.031672
0.526358 0.009477 0.040113
0.596768 0.029196 0.021447
0.587052 -0.010893 0.009594
0.529456 -0.000945 0.025348
0.577751 -0.059951 0.049738
0.572759 -0.019049 0.071347
0.542402 -0.033159 0.026701
0.534984 -0.014372 0.045435
0.601255 0.065729 0.046200
0.612384 0.007780 0.055381
0.567565 -0.049802 0.009902
0.605706 -0.027697 0.022904
0.548498 0.047763 0.008281
0.536000 -0.001931 0.059171
0.594283 0.030164 0.019152
0.559012 -0.044675 0.010537
0.527028 0.056224 0.042647
0.563247 0.083779 0.022098
0.534369 0.063806 0.026460
0.559942 -0.002630 0.001478
0.582518 -0.005874 0.006937
0.532561 -0.012570 0.030286
0.536379 0.012906 0.067823
0.574383 0.096493 0.051506
0.565470 -0.029494 0.065240
0.547038 0.093700 0.042199
0.585337 -0.008358 0.074792
0.572278 -0.031043 0.066067
0.531116 0.070820 0.042276
0.554655 0.000876 0.001677
0.611225 0.024394 0.046842
0.529081 0.064614 0.047269
0.543900 0.048408 0.010352
0.608674 -0.042954 0.022020
0.540616 0.085988 0.059354
0.597172 -0.033105 0.062671
0.528367 0.061112 0.049837
0.547515 -0.033282 0.049809
0.590953 0.052658 0.081418
0.586713 -0.068555 0.016152
0.579816 -0.060373 0.012273
0.540165 -0.017742 0.053749
0.529307 0.026924 0.061868
0.577973 0.063823 0.082838
0.577578 -0.013706 0.073527
0.569229 -0.008706 0.002144
0.574220 0.040680 0.086766
0.555722 0.031108 0.003614
0.599263 -0.022153 0.017307
0.606215 0.024008 0.071009
0.610710 -0.007838 0.055800
0.579175 0.082724 0.027617
0.526946 0.012417 0.026014
0.602379 0.044026 0.074330
0.593579 0.079813 0.049307
0.529518 -0.000016 0.044130
0.597796 0.045860 0.026483
0.537001 0.081947 0.055939
0.612880 -0.068765 0.039146
0.612360 0.006659 0.046643
0.593080 0.033403 0.018632
0.604783 -0.011791 0.025193
0.568801 -0.046685 0.056035
0.550410 0.087209 0.027906
0.549216 0.008515 0.076060
0.584714 0.018695 0.082984
0.526625 0.033310 0.056915
0.550752 -0.024384 0.060467
0.611013 -0.036976 0.050097
0.527837 0.018184 0.022119
0.592387 0.039206 0.019164
0.615254 -0.040733 0.039872
0.612973 -0.031167 0.045371
0.590571 -0.042045 0.010487
0.562795 -0.056918 0.040057
0.530174 0.065443 0.037629
0.570296 -0.064167 0.037404
0.569548 0.086879 0.073157
0.583471 0.037180 0.011685
0.581282 0.048116 0.085237
0.526841 0.054900 0.040966
0.609807 0.015824 0.064910
0.572034 0.096730 0.057173
0.599794 0.047989 0.029906
