ply
format ascii 1.0
element vertex 1024
property float x
property float y
property float z
end_header
0.601083 0.039551 0.079110
0.581888 -0.011484 0.124525
0.625658 -0.030948 0.078210
0.609782 0.038931 0.117819
0.585705 -0.009895 0.046133
0.560113 0.080171 0.104127
0.524942 0.026729 0.095960
0.574691 0.030007 0.143223
0.579596 -0.052243 0.082646
0.547326 0.075240 0.134885
0.603266 -0.027410 0.039908
0.634991 -0.051764 0.047332
0.529018 0.050265 0.125544
0.569129 -0.016795 0.045729
0.607691 -0.051893 0.080655
0.598272 -0.007527 0.119200
0.596666 0.027390 0.133230
0.541619 -0.024615 0.081273
0.616001 0.026830 0.086875
0.526572 0.013640 0.102242
0.583666 0.029409 0.140647
0.609378 -0.058548 0.071710
0.542930 0.002259 0.061468
0.530152 0.028628 0.122790
0.529364 0.064092 0.108011
0.611751 -0.064795 0.042094
0.609027 -0.066056 0.049592
0.526362 0.021422 0.109205
0.617365 0.011524 0.107879
0.626023 -0.060540 0.054652
0.554425 0.003005 0.055114
0.626259 -0.014200 0.071074
0.601658 -0.064862 0.044005
0.595127 -0.004234 0.049446
0.562002 -0.035730 0.098736
0.603216 0.045863 0.087251
0.605112 -0.020720 0.106326
0.597604 -0.023296 0.041425
0.535719 0.018835 0.070485
0.623068 -0.018462 0.053042
0.570718 0.001167 0.133862
0.612099 0.026811 0.079863
0.589523 0.012795 0.134034
0.571676 -0.052203 0.053140
0.571998 -0.016356 0.122332
0.553122 -0.015536 0.116744
0.571398 0.051242 0.073552
0.597350 0.045413 0.080862
0.622745 -0.015002 0.087944
0.533807 0.059580 0.091293
0.599851 -0.059561 0.072697
0.589727 -0.013600 0.120305
0.576250 -0.034120 0.106123
0.604683 0.054254 0.106271
0.591686 -0.013299 0.119544
0.551492 -0.035816 0.062798
0.579436 0.071433 0.096224
0.560643 0.008902 0.137211
0.621460 0.005589 0.096213
0.584298 0.070399 0.099199
0.596886 -0.044965 0.035797
0.633242 -0.051764 0.041708
0.602739 0.055479 0.117581
0.575721 0.031674 0.143260
0.569877 -0.004183 0.130736
0.596936 0.010994 0.057711
0.538708 0.065686 0.135583
0.601046 -0.045062 0.034560
0.525626 0.026211 0.109026
0.595960 0.056100 0.090344
0.542402 -0.007864 0.114637
0.567824 -0.027609 0.111383
0.525274 0.039161 0.099963
0.546321 -0.009629 0.057808
0.562472 -0.035587 0.050203
0.559139 0.060897 0.078757
0.625933 -0.016158 0.062057
0.604791 0.054420 0.109429
0.555608 0.048629 0.144952
0.527414 0.049561 0.097176
0.531690 0.023780 0.076402
0.609876 -0.065013 0.042342
0.578505 -0.037740 0.102421
0.622703 -0.028645 0.083806
0.531572 0.064702 0.125165
0.625229 -0.061848 0.047710
0.569911 0.017023 0.140630
0.615083 0.033213 0.094145
0.620451 -0.044467 0.077836
0.616444 0.011311 0.072572
0.548766 0.081452 0.124174
0.616723 0.001917 0.065412
0.538352 -0.012923 0.100563
0.603003 -0.019903 0.108372
0.546572 0.025476 0.065047
0.526055 0.048748 0.102221
0.539164 0.075279 0.126312
0.533175 0.002118 0.073112
0.598484 0.029086 0.069583
0.560715 0.035662 0.144405
0.563563 0.019359 0.141256
0.525372 0.038789 0.098991
0.617294 -0.012965 0.098547
0.595875 -0.060440 0.070986
0.599544 -0.006052 0.049506
0.633309 -0.048753 0.040309
0.564103 0.074073 0.136745
0.600210 -0.030512 0.038659
0.563838 0.062855 0.080367
0.551567 0.082384 0.123055
0.568009 0.020746 0.141702
0.590327 0.057130 0.086179
0.600284 0.035127 0.130615
0.625868 -0.045954 0.070981
0.571011 -0.048255 0.084574
0.604449 0.052425 0.099270
0.568383 -0.026626 0.112569
0.580351 -0.009573 0.126147
0.595746 -0.034664 0.102001
0.564037 -0.009925 0.048463
0.618686 0.008877 0.074084
0.606445 -0.059822 0.070842
0.552518 -0.008306 0.123225
0.574092 -0.023319 0.043554
0.577884 -0.057758 0.054316
0.590426 0.054624 0.083763
0.615146 -0.032779 0.090465
0.562131 -0.046344 0.061318
0.556430 -0.027956 0.052236
0.567577 0.081211 0.111606
0.584567 0.073832 0.110191
0.581234 -0.021567 0.117333
0.539906 0.000542 0.119754
0.625933 -0.055320 0.063078
0.602433 -0.054682 0.079474
0.583447 0.020073 0.139043
0.573623 -0.044721 0.092664
0.541655 0.021765 0.066543
0.540491 0.045525 0.138794
0.545927 0.024172 0.138229
0.579700 0.050844 0.141459
0.613025 -0.034051 0.091546
0.547337 0.081226 0.115258
0.622258 -0.002006 0.071676
0.567720 0.070435 0.088515
0.592235 0.006720 0.130143
0.561481 0.040148 0.145020
0.573365 0.078135 0.105743
0.556265 0.076788 0.135430
0.555194 -0.005535 0.052991
0.625982 -0.034165 0.076591
0.547847 0.077824 0.102511
0.590196 0.070100 0.115691
0.557149 0.070591 0.140608
0.584656 0.003953 0.132363
0.561414 0.032248 0.143890
0.568252 0.023004 0.058113
0.566688 0.080021 0.105927
0.586555 -0.040521 0.039151
0.524866 0.027126 0.103925
0.560493 -0.045267 0.069347
0.619618 -0.048666 0.075529
0.623639 -0.017368 0.085410
0.543559 -0.020451 0.098204
0.628788 -0.047770 0.066151
0.567380 -0.031102 0.107459
0.596046 0.058595 0.093859
0.602113 -0.026973 0.104339
0.535021 -0.013658 0.083507
0.561725 0.002384 0.052034
0.598446 -0.018658 0.112191
0.540515 0.075405 0.105083
0.614293 -0.036494 0.088848
0.551993 -0.018389 0.053950
0.603011 0.056751 0.109394
0.565670 -0.045186 0.085212
0.563329 -0.011863 0.048411
0.546277 0.005965 0.060010
0.559564 0.083064 0.120526
0.569636 0.069241 0.087687
0.569976 -0.042903 0.047716
0.584347 0.053160 0.138882
0.598995 0.057668 0.122729
0.612309 -0.008137 0.053698
0.573861 0.020763 0.057395
0.619838 0.017849 0.100455
0.556158 0.074563 0.092819
0.554255 -0.005709 0.126226
0.554592 -0.021121 0.052447
0.531406 -0.004417 0.091230
0.562571 0.074413 0.136843
0.610836 -0.036328 0.091748
0.596849 0.060549 0.098532
0.610678 -0.063920 0.060879
0.563494 0.019482 0.057208
0.539873 0.034649 0.136890
0.527702 0.044644 0.093292
0.611579 0.006760 0.115098
0.543818 0.063615 0.085694
0.588347 0.071595 0.115256
0.566290 0.077182 0.098638
0.532124 0.010899 0.074573
0.533467 -0.005930 0.099482
0.553329 0.024499 0.141114
0.620786 0.013930 0.098115
0.591433 -0.015178 0.044380
0.537120 0.009204 0.122912
0.592451 -0.062555 0.045421
0.630410 -0.056841 0.042984
0.587513 -0.024058 0.113751
0.603688 -0.058001 0.074542
0.585594 0.059072 0.084757
0.596661 -0.055498 0.079528
0.609224 0.008830 0.118379
0.605046 0.054060 0.109602
0.526476 0.054727 0.106265
0.628298 -0.050783 0.064633
0.556524 -0.031353 0.099890
0.576583 0.074435 0.130229
0.598754 -0.028147 0.039578
0.595128 -0.060232 0.071351
0.589805 0.069247 0.105598
0.563737 -0.039823 0.050974
0.534147 0.070350 0.105804
0.618022 -0.005214 0.060913
0.587330 -0.021012 0.042177
0.541514 -0.025244 0.075726
0.601304 0.020047 0.065428
0.544199 -0.011398 0.112766
0.604719 0.029224 0.074167
0.626992 -0.030509 0.075826
0.564297 0.082497 0.116904
0.596521 0.059133 0.125225
0.530021 -0.000423 0.093615
0.594520 -0.043611 0.094254
0.609062 -0.046548 0.032759
0.565773 0.050442 0.145136
0.607140 -0.065180 0.057270
0.531786 -0.004572 0.094592
0.607705 -0.039550 0.091576
0.548910 0.041109 0.070106
0.575862 0.076157 0.127771
0.541724 -0.010463 0.110626
0.577357 0.016721 0.055974
0.603443 0.029810 0.127898
0.622520 -0.008908 0.063946
0.588164 0.012125 0.055619
0.552182 0.000461 0.055620
0.566675 -0.012525 0.047132
0.582048 -0.038992 0.040713
0.597293 -0.057185 0.038658
0.614035 0.027490 0.113427
0.635856 -0.043055 0.047185
0.544598 0.046520 0.141409
0.559961 0.076069 0.135780
0.538291 0.012001 0.126100
0.564373 0.073697 0.091954
0.589350 0.067264 0.099469
0.635771 -0.049518 0.048782
0.553527 0.039413 0.067739
0.606676 0.038121 0.123364
0.569838 -0.052354 0.058012
0.536832 0.065329 0.093115
0.526230 0.033482 0.115019
0.538468 -0.018567 0.087389
0.588125 0.026036 0.138234
0.593756 0.001706 0.051959
0.617075 0.029676 0.100144
0.599476 0.037672 0.076333
0.601499 -0.033866 0.037358
0.583817 -0.060289 0.063802
0.582506 0.070875 0.098091
0.588572 0.070033 0.105237
0.544987 0.013690 0.133042
0.531551 0.054912 0.091275
0.604867 -0.018574 0.107848
0.635284 -0.042976 0.055809
0.631182 -0.031936 0.048235
0.545879 -0.012004 0.058128
0.624642 -0.007103 0.076980
0.582127 0.074324 0.106156
0.539028 0.007175 0.065353
0.553126 0.076670 0.097091
0.612756 -0.032361 0.037973
0.594405 0.024491 0.134391
0.546655 -0.012483 0.114293
0.584839 0.043032 0.071772
0.574173 0.012047 0.053685
0.551009 0.081184 0.110147
0.594178 0.056054 0.088374
0.525101 0.020777 0.097459
0.599480 -0.064924 0.056831
0.617464 -0.001962 0.103374
0.571681 -0.024272 0.115471
0.539974 0.076456 0.109250
0.603263 0.040967 0.126965
0.559349 -0.022365 0.049748
0.588645 0.066670 0.128329
0.541204 0.039509 0.138716
0.588997 -0.058659 0.073388
0.630277 -0.035828 0.068348
0.625714 -0.012270 0.071775
0.559445 -0.044082 0.062273
0.574072 -0.052357 0.077847
0.626218 -0.049764 0.067901
0.631608 -0.033163 0.047353
0.598937 0.013904 0.128693
0.627819 -0.039652 0.036986
0.629762 -0.035510 0.041968
0.566643 0.073174 0.136809
0.556803 0.051006 0.145097
0.550614 0.082458 0.119585
0.585499 0.060490 0.086134
0.583106 0.070223 0.130447
0.546300 0.047724 0.074361
0.549591 0.046294 0.143514
0.537396 0.046936 0.136388
0.607769 0.038963 0.085861
0.566411 0.069078 0.086546
0.604936 -0.058333 0.036716
0.615551 0.026564 0.110220
0.533388 -0.007268 0.096104
0.547509 0.081412 0.116323
0.607519 0.037097 0.083615
0.613499 -0.014373 0.049728
0.531803 0.026109 0.124622
0.555153 -0.011860 0.121679
0.617802 -0.035437 0.086279
0.528716 0.060446 0.120959
0.528486 0.043381 0.090559
0.592435 -0.018429 0.043157
0.547601 0.012641 0.134140
0.565300 -0.047803 0.075741
0.602787 -0.025284 0.105044
0.632932 -0.041605 0.062120
0.545904 0.010121 0.131633
0.587954 -0.051435 0.040487
0.529385 0.029574 0.081941
0.544760 -0.013017 0.111471
0.551157 0.082539 0.118161
0.631950 -0.030938 0.061381
0.576947 -0.041425 0.097998
0.527014 0.020440 0.110869
0.572236 -0.004564 0.130421
0.630164 -0.029096 0.067570
0.614975 -0.026193 0.042029
0.560956 0.014704 0.056062
0.580860 0.020224 0.058145
0.629680 -0.034638 0.069718
0.550222 0.020789 0.061875
0.568322 -0.000249 0.049655
0.533451 0.005162 0.114250
0.565859 0.079835 0.127966
0.568999 -0.051960 0.065013
0.600691 -0.024485 0.106926
0.526759 0.033226 0.089787
0.544999 0.075403 0.099597
0.609588 -0.065127 0.056979
0.627089 -0.021377 0.055757
0.532890 0.002998 0.073650
0.565646 0.076288 0.133786
0.537952 0.037701 0.135739
0.542103 0.037206 0.071883
0.594886 -0.016427 0.044055
0.580604 -0.013146 0.123733
0.539673 0.073111 0.101117
0.586383 0.042884 0.072301
0.622047 -0.037753 0.080285
0.531306 -0.000816 0.079965
0.524828 0.026740 0.103105
0.592003 0.013427 0.132951
0.526714 0.036443 0.117786
0.608207 0.046658 0.097865
0.566881 0.079002 0.129005
0.551337 -0.003921 0.125969
0.568938 0.070113 0.088502
0.543561 0.039078 0.071795
0.616751 -0.038378 0.085435
0.614554 -0.026412 0.041802
0.620366 -0.008834 0.060280
0.537818 0.065236 0.134864
0.612265 -0.064170 0.059382
0.542463 -0.002029 0.120430
0.601356 -0.037508 0.096980
0.587736 -0.022645 0.114758
0.545894 -0.029925 0.080985
0.592673 -0.023775 0.111854
0.555795 0.020628 0.140646
0.559831 -0.001267 0.131308
0.632868 -0.055376 0.051048
0.582336 0.072521 0.101414
0.555471 0.080232 0.104785
0.608966 -0.045979 0.085562
0.545433 0.000971 0.059559
0.617441 -0.013894 0.052445
0.540653 0.033454 0.137271
0.530758 0.011991 0.114545
0.564261 -0.046702 0.077421
0.532260 0.068223 0.121837
0.532756 0.069658 0.120134
0.573059 0.077086 0.128307
0.586003 0.072521 0.121250
0.601673 0.022825 0.067480
0.547910 0.036226 0.141919
0.549542 0.011923 0.059665
0.569572 -0.025461 0.045062
0.619692 0.010910 0.078160
0.617291 0.027406 0.103755
0.624035 -0.015228 0.058473
0.616640 -0.032260 0.089328
0.532107 0.069515 0.113929
0.607311 0.049162 0.100816
0.534269 -0.011431 0.087759
0.534317 0.056782 0.133266
0.529086 0.063988 0.109932
0.592216 -0.026270 0.110220
0.601831 -0.054485 0.079898
0.536905 -0.016944 0.074630
0.564443 0.044026 0.145336
0.624395 -0.020219 0.083187
0.614031 0.026972 0.113581
0.545313 0.074992 0.098521
0.527487 0.037336 0.089775
0.533193 0.069297 0.105994
0.552109 0.080588 0.107358
0.614899 -0.022725 0.096555
0.544956 -0.006409 0.118973
0.577626 0.047170 0.072210
0.539978 0.002410 0.121364
0.580265 -0.001185 0.131122
0.554598 0.010829 0.057059
0.623033 0.003365 0.084145
0.527174 0.008947 0.093567
0.616026 -0.046657 0.080102
0.605530 -0.037442 0.094594
0.615016 -0.055145 0.072921
0.544080 -0.025628 0.064709
0.598112 -0.003544 0.121493
0.568655 0.036825 0.144681
0.576450 -0.019420 0.119710
0.577628 -0.044522 0.043641
0.597972 -0.025141 0.040730
0.590320 -0.003978 0.125800
0.551886 -0.003813 0.126363
0.575503 0.025968 0.060124
0.629148 -0.046997 0.035671
0.574153 0.010074 0.137816
0.602657 0.051191 0.093105
0.539083 0.062793 0.137019
0.549078 -0.015234 0.113599
0.604292 0.050393 0.094939
0.555010 0.052907 0.074109
0.580975 -0.000832 0.049213
0.560240 0.047860 0.070513
0.574001 0.042050 0.144009
0.527799 0.019953 0.112985
0.568550 0.007110 0.051993
0.622149 -0.009775 0.062096
0.590964 -0.041002 0.097833
0.532176 -0.004638 0.096801
0.596589 0.054902 0.089588
0.561489 0.077380 0.133862
0.538807 0.069505 0.133266
0.525782 0.050558 0.105835
0.559815 0.017514 0.140422
0.606401 0.051553 0.112857
0.535876 -0.010637 0.070627
0.530194 0.034986 0.125175
0.601921 -0.017905 0.110403
0.526206 0.013578 0.093404
0.535838 -0.009759 0.099703
0.611991 0.041881 0.105024
0.559162 0.078064 0.098861
0.568225 0.031869 0.144053
0.583621 -0.036374 0.040037
0.629811 -0.029569 0.068938
0.615906 0.028622 0.089079
0.557754 0.045553 0.145136
0.615601 -0.065458 0.048295
0.534038 0.070980 0.108088
0.618069 -0.035733 0.085834
0.593612 0.065103 0.102281
0.580952 0.001973 0.132591
0.606574 -0.044113 0.033494
0.595769 -0.044932 0.036152
0.610557 0.010659 0.117567
0.596608 0.018842 0.131763
0.616166 0.018214 0.110614
0.544485 -0.018168 0.103878
0.555840 -0.035740 0.091213
0.577424 -0.013232 0.124278
0.619018 0.017525 0.103620
0.588652 -0.052251 0.084624
0.603328 0.029179 0.127988
0.633623 -0.034086 0.053388
0.585760 -0.014505 0.044414
0.583451 0.063362 0.135883
0.601095 0.025958 0.129723
0.593254 -0.007725 0.047608
0.559350 0.078125 0.098998
0.525223 0.029561 0.108567
0.605869 0.038091 0.124457
0.562961 -0.021241 0.116366
0.624228 -0.022585 0.083137
0.542147 0.009997 0.063435
0.624832 -0.034501 0.078217
0.575099 -0.027701 0.112414
0.546843 0.018480 0.062761
0.612833 -0.057039 0.034743
0.532462 0.040776 0.130168
0.543241 -0.026720 0.068578
0.601168 -0.028977 0.103538
0.561834 0.071949 0.139098
0.581368 -0.019984 0.118554
0.562980 0.072205 0.138658
0.586795 -0.038872 0.100778
0.619548 -0.014919 0.053170
0.544069 -0.023640 0.063054
0.627584 -0.019949 0.072150
0.596403 0.060741 0.098069
0.580312 0.052916 0.076916
0.534066 0.057603 0.132828
0.568389 0.053219 0.074315
0.572163 -0.053545 0.069289
0.527581 0.056501 0.102629
0.547019 0.056605 0.079035
0.621908 -0.012909 0.090304
0.572810 -0.025020 0.043856
0.626500 -0.028308 0.046082
0.551225 0.040817 0.143566
0.575863 -0.052800 0.078740
0.594018 0.058975 0.128803
0.586557 -0.061047 0.048125
0.614148 -0.018008 0.047379
0.605477 0.052368 0.115036
0.555802 0.049832 0.144991
0.580832 0.076446 0.116914
0.609584 0.046580 0.105107
0.547195 0.001893 0.058659
0.634599 -0.038348 0.056698
0.587350 -0.008044 0.046964
0.525144 0.022470 0.102818
0.613200 0.030079 0.114379
0.607644 -0.065947 0.046271
0.528553 0.024003 0.117337
0.555656 -0.000026 0.130678
0.609199 -0.017738 0.045746
0.557430 0.022210 0.059712
0.556829 -0.040105 0.081734
0.600631 -0.035367 0.036898
0.618196 -0.011886 0.054847
0.561255 -0.023131 0.113578
0.575582 0.028259 0.142804
0.572530 0.039079 0.144320
0.632331 -0.030806 0.056146
0.599839 -0.054117 0.036388
0.551773 0.035854 0.066794
0.568921 0.077220 0.130922
0.587856 0.069521 0.102310
0.551727 0.003477 0.056515
0.570673 -0.031578 0.044864
0.587454 0.057089 0.084049
0.535422 -0.014618 0.079734
0.586435 -0.017972 0.043192
0.579781 -0.031317 0.108943
0.553008 0.035096 0.143189
0.567311 -0.045356 0.051132
0.592069 0.066965 0.103953
0.632977 -0.044664 0.039849
0.619861 0.019843 0.090142
0.600502 -0.041036 0.035291
0.547497 0.072896 0.137253
0.572317 0.080070 0.119021
0.573640 0.065749 0.085297
0.566200 0.014559 0.054952
0.573631 0.041828 0.068297
0.552906 0.063894 0.082083
0.525928 0.049019 0.103181
0.545051 0.031493 0.067939
0.608631 0.041513 0.118821
0.561980 0.072260 0.138834
0.539807 0.018073 0.131062
0.539147 0.068897 0.134120
0.593926 0.066196 0.107077
0.595684 0.027817 0.067137
0.575629 0.078081 0.108638
0.587555 0.064739 0.092966
0.560559 -0.017303 0.119302
0.622198 -0.012472 0.089743
0.597040 -0.044193 0.092871
0.567807 -0.042029 0.093560
0.527614 0.034712 0.088069
0.527650 0.012495 0.106160
0.621883 -0.002407 0.092986
0.596582 0.046600 0.081258
0.612259 -0.060687 0.066973
0.533511 -0.001160 0.072838
0.610563 -0.058468 0.071275
0.586317 0.033559 0.066515
0.525963 0.040316 0.096837
0.561608 0.027109 0.060539
0.527919 0.049834 0.123113
0.589942 0.039203 0.137599
0.550862 0.007481 0.057896
0.561289 0.049162 0.145397
0.573726 -0.041186 0.044890
0.635751 -0.048620 0.046504
0.543588 -0.006794 0.117154
0.595326 -0.014556 0.044855
0.622387 0.006889 0.091128
0.617011 -0.054562 0.072169
0.569874 0.079358 0.106180
0.565753 0.076838 0.097740
0.602450 -0.010315 0.048016
0.538079 -0.014179 0.097314
0.568885 -0.039612 0.097792
0.617830 -0.002058 0.102692
0.580207 -0.010513 0.045692
0.594320 0.065896 0.107375
0.563446 0.013608 0.139542
0.613694 0.002329 0.110832
0.628858 -0.026096 0.070829
0.575271 0.052390 0.075034
0.557068 0.077564 0.134468
0.623788 -0.003505 0.076410
0.563847 -0.041796 0.090315
0.568804 -0.050557 0.073717
0.573869 -0.052432 0.050530
0.532500 0.007849 0.074008
0.622012 -0.024176 0.086652
0.602610 0.050163 0.123971
0.620836 0.015653 0.096589
0.613383 -0.041142 0.033628
0.596966 0.037655 0.133090
0.595341 0.049517 0.132184
0.578777 -0.058322 0.062469
0.537732 -0.005055 0.065900
0.589478 0.052203 0.080921
0.593671 0.051041 0.082881
0.573059 0.079310 0.109922
0.578917 -0.008813 0.126940
0.550377 0.006047 0.131891
0.590865 0.024065 0.136456
0.547360 -0.000047 0.126199
0.604911 0.031023 0.075669
0.558251 -0.028310 0.105607
0.630187 -0.039264 0.067902
0.542602 -0.011220 0.110925
0.623486 -0.056046 0.064768
0.575230 -0.053850 0.074911
0.608687 -0.051558 0.033159
0.603056 0.024935 0.127934
0.555921 0.080462 0.105352
0.565118 -0.034349 0.048176
0.548834 -0.007382 0.121507
0.569840 -0.014825 0.123461
0.562039 0.065543 0.142622
0.611861 0.004823 0.062795
0.571413 0.023669 0.058503
0.624393 -0.006123 0.076134
0.527305 0.048237 0.121557
0.551432 -0.001881 0.127468
0.538727 0.076770 0.118846
0.542148 0.039549 0.139384
0.535512 0.036073 0.076561
0.632167 -0.056266 0.051078
0.531601 0.055946 0.091912
0.571337 -0.052917 0.055339
0.536323 0.069704 0.099886
0.623791 -0.017413 0.085036
0.579805 0.048033 0.073355
0.622856 0.000512 0.089325
0.581389 0.067479 0.091630
0.526928 0.053758 0.119208
0.607276 0.019501 0.123124
0.542004 0.048223 0.139980
0.560085 -0.044574 0.061799
0.585445 0.050103 0.138853
0.595549 -0.004055 0.122847
0.548949 -0.026276 0.097723
0.594100 -0.016919 0.115875
0.560624 0.080247 0.129748
0.591166 -0.015553 0.118326
0.594379 -0.060568 0.070483
0.566814 0.068538 0.140222
0.626706 -0.049526 0.067511
0.612529 -0.018869 0.101120
0.538427 -0.017487 0.069545
0.544078 -0.019894 0.100270
0.575977 0.005668 0.135578
0.592050 0.068545 0.112544
0.612316 0.002952 0.112777
0.627541 -0.024111 0.052468
0.594644 0.003926 0.127469
0.621238 0.004498 0.096842
0.536655 0.071413 0.128139
0.602116 -0.015176 0.111960
0.580884 0.073747 0.127315
0.545415 0.074990 0.133973
0.536194 0.004722 0.068042
0.543744 -0.006461 0.117667
0.588561 0.019752 0.136743
0.581374 0.027509 0.141277
0.620160 0.016482 0.085877
0.606540 -0.051837 0.033649
0.551170 -0.031617 0.058511
0.539970 0.073305 0.130804
0.566154 0.035763 0.144659
0.533918 0.047413 0.132855
0.566147 -0.000991 0.049889
0.590735 0.002928 0.051927
0.584770 -0.033837 0.106047
0.623741 -0.028545 0.082233
0.573556 -0.043954 0.093764
0.608745 -0.061899 0.038284
0.547955 0.080431 0.126600
0.617559 -0.030508 0.089387
0.604017 0.055370 0.108067
0.600409 -0.017251 0.111850
0.597349 0.033379 0.071742
0.599739 -0.062146 0.067329
0.569346 0.073610 0.093522
0.572476 -0.004839 0.047743
0.533091 0.041687 0.081842
0.584312 0.074401 0.113725
0.623441 -0.001877 0.085949
0.566971 -0.031485 0.106877
0.568692 0.077203 0.099814
0.559878 0.062784 0.143695
0.602738 -0.050626 0.084119
0.634612 -0.039614 0.057442
0.526038 0.021244 0.089102
0.529209 0.043486 0.088995
0.539020 0.021400 0.068226
0.631934 -0.037235 0.064602
0.578238 -0.013585 0.044781
0.551441 0.080502 0.107502
0.588167 -0.053991 0.081922
0.594689 0.061424 0.096420
0.536379 -0.010523 0.099796
0.595677 0.019763 0.132617
0.537044 0.034148 0.074316
0.591886 -0.031762 0.105979
0.558665 -0.036571 0.093827
0.591769 0.068341 0.118230
0.625635 -0.038626 0.075273
0.559355 -0.042771 0.058768
0.529605 0.001725 0.086861
0.567572 0.057679 0.077110
0.593532 0.062666 0.125960
0.586711 -0.016648 0.119502
0.581246 -0.049887 0.087241
0.596372 0.053203 0.129728
0.623628 -0.037170 0.036462
0.626724 -0.021841 0.054198
0.623467 -0.017949 0.054109
0.596467 -0.003420 0.122625
0.541723 0.019070 0.133300
0.622061 0.001633 0.075139
0.529873 0.048217 0.090200
0.591151 -0.036517 0.038024
0.587060 -0.051304 0.040862
0.549213 -0.028055 0.058683
0.536491 0.010255 0.122825
0.578268 0.062252 0.139340
0.568288 -0.049715 0.054564
0.547877 0.040303 0.070183
0.535976 0.041535 0.134463
0.578258 0.056570 0.078937
0.530810 0.009641 0.112721
0.593119 0.038818 0.072899
0.570431 -0.043163 0.047504
0.579651 -0.043368 0.095956
0.537550 0.070997 0.100211
0.607447 -0.034581 0.095440
0.538103 0.023267 0.131677
0.595218 0.056296 0.089736
0.614836 -0.042689 0.033041
0.534204 0.071712 0.120310
0.594969 0.052218 0.085079
0.552478 -0.025072 0.104423
0.597323 -0.004808 0.121325
0.608187 -0.048750 0.032855
0.530985 -0.002922 0.093657
0.565325 0.023517 0.142338
0.598924 0.025215 0.067306
0.594417 -0.064206 0.056812
0.563942 -0.043619 0.086456
0.598451 0.046901 0.083144
0.623205 -0.062914 0.051504
0.616693 -0.000788 0.105193
0.531612 0.038373 0.082251
0.553763 -0.025144 0.053560
0.570765 -0.040844 0.096982
0.562117 0.009519 0.137747
0.624694 -0.057292 0.061976
0.556771 0.078307 0.099525
0.570805 0.039174 0.144597
0.575511 -0.051573 0.081339
0.563287 -0.029589 0.048329
0.565375 -0.049277 0.065003
0.595333 -0.040377 0.097144
0.635643 -0.040722 0.049191
0.596385 -0.060536 0.041082
0.607770 0.003630 0.059020
0.617907 -0.000790 0.064655
0.526723 0.017345 0.107305
0.536201 -0.006096 0.106814
0.590209 0.065533 0.097319
0.593345 -0.064085 0.049052
0.571889 0.080352 0.115945
0.533762 0.049910 0.085098
0.558298 -0.032871 0.052293
0.537769 -0.008249 0.106960
0.608407 -0.026559 0.100192
0.568109 0.073659 0.093089
0.550921 0.027399 0.141175
0.582818 0.041113 0.141056
0.574753 -0.043739 0.045004
0.632346 -0.032703 0.049971
0.554179 -0.017770 0.052537
0.598431 -0.048811 0.035530
0.582076 0.027869 0.141087
0.559255 -0.038024 0.091842
0.597045 -0.052837 0.083110
0.538133 0.009606 0.124392
0.556560 -0.009091 0.051775
0.604129 -0.064390 0.060753
0.579349 0.065796 0.088146
0.582228 -0.019728 0.118570
0.617577 0.006857 0.106510
0.609693 0.044685 0.098486
0.594305 0.024960 0.064666
0.545155 0.077579 0.130007
0.543272 0.059732 0.140485
0.619138 -0.000687 0.100752
0.593164 0.065987 0.103771
0.609554 0.014081 0.119603
0.531637 -0.004594 0.082926
0.592119 0.012836 0.132670
0.564853 0.018351 0.141047
0.567780 0.080744 0.123814
0.576462 0.077926 0.109498
0.574859 -0.031340 0.043070
0.560962 -0.004937 0.129259
0.561128 -0.041470 0.087165
0.621870 0.008061 0.082249
0.624905 -0.045421 0.033524
0.545261 -0.028709 0.082827
0.588085 -0.009685 0.123523
0.577387 0.025085 0.059984
0.624563 -0.020102 0.082796
0.605323 0.045268 0.089500
0.526722 0.037333 0.092099
0.606163 -0.044695 0.088278
0.593965 0.066606 0.109758
0.601477 -0.043881 0.091392
0.558020 0.037459 0.065687
0.622383 0.006463 0.091392
0.570193 0.010828 0.138549
0.530893 0.005378 0.078384
0.568387 -0.029724 0.109290
0.612083 -0.030984 0.094360
0.622265 -0.054481 0.067720
0.610384 0.038551 0.089731
0.528044 0.028080 0.084130
0.589810 -0.042580 0.096449
0.526442 0.051920 0.102962
0.633088 -0.052399 0.055913
0.560555 0.013701 0.055833
0.579670 0.069655 0.133919
0.545952 -0.023210 0.060212
0.561239 0.057032 0.076016
0.602102 0.057536 0.114058
0.586200 0.031745 0.065433
0.534170 0.003552 0.114079
0.559940 -0.004492 0.129282
0.625004 -0.058451 0.060029
0.542115 -0.022128 0.065347
0.533580 0.005326 0.072051
0.544018 0.028956 0.067550
0.540379 -0.022194 0.069896
0.576896 0.010324 0.137416
0.589014 0.017060 0.135741
0.540657 0.055366 0.139150
0.549012 0.063482 0.083050
0.609693 0.006951 0.117205
0.629567 -0.050168 0.063471
0.526333 0.053345 0.105177
0.611194 -0.059008 0.070175
0.545050 0.010484 0.061716
0.539119 0.068884 0.134100
0.622598 -0.013623 0.058051
0.617309 -0.021273 0.046365
0.588618 0.005757 0.052810
0.603025 0.011166 0.124667
0.623249 -0.000432 0.086918
0.545132 0.042305 0.072355
0.617686 -0.052379 0.032892
0.594309 0.065127 0.120263
0.613608 0.037335 0.107398
0.566232 -0.032484 0.105446
0.573653 0.044840 0.144018
0.595216 0.024375 0.064751
0.605273 -0.060109 0.037655
0.621008 0.014214 0.086522
0.531126 0.013878 0.116731
0.604322 0.055006 0.111141
0.562979 -0.046267 0.075331
0.560802 0.046597 0.069790
0.541584 0.018178 0.132748
0.578544 0.008842 0.136439
0.613196 -0.033643 0.091665
0.535444 0.052032 0.134744
0.575804 -0.005472 0.047353
0.592741 0.067809 0.110697
0.631417 -0.036660 0.065789
0.595243 -0.048941 0.088263
0.524863 0.026991 0.096996
0.600285 -0.047002 0.034753
0.524957 0.041199 0.109775
0.607095 0.017237 0.067562
0.526005 0.041538 0.097410
0.535144 0.067049 0.097619
0.610835 -0.003193 0.111469
0.532693 0.039381 0.081262
0.559052 0.059749 0.077927
0.545731 0.003480 0.127423
0.622007 -0.048866 0.073081
0.559444 0.068389 0.141657
0.580049 -0.059367 0.057064
0.585214 -0.025205 0.041116
0.558789 -0.022205 0.050040
0.618512 0.020858 0.104001
0.575216 0.073442 0.096537
0.621867 -0.006831 0.091906
0.603261 -0.003431 0.052210
0.567867 0.027212 0.143190
0.582290 -0.059917 0.051544
0.614267 -0.005037 0.057491
0.539782 -0.013269 0.103196
0.585617 0.034302 0.066713
0.583537 -0.004316 0.048101
0.538817 -0.019489 0.085974
0.607505 -0.058404 0.072691
0.601209 -0.026060 0.105539
0.559602 -0.044149 0.073051
0.556279 -0.032511 0.097799
0.590013 0.065829 0.097604
0.620084 0.015857 0.084765
0.578237 -0.047328 0.044155
0.610089 -0.014437 0.048154
0.533486 0.034699 0.078124
0.559703 -0.022730 0.113196
0.582210 0.034565 0.065875
0.569796 -0.046005 0.049336
0.528137 0.029304 0.118816
0.541875 0.071239 0.095446
0.525002 0.041348 0.104033
0.554555 -0.005966 0.053241
0.577074 -0.001085 0.048872
0.546967 -0.029623 0.085817
0.559640 -0.010277 0.125032
0.560785 0.082892 0.121081
0.595286 -0.037506 0.099760
0.534227 0.071229 0.122030
0.610367 -0.011987 0.107106
0.601874 -0.036438 0.097552
0.527276 0.044246 0.121248
0.549155 -0.004813 0.056371
0.610559 0.031806 0.082482
0.529542 0.037088 0.124597
0.530320 0.033235 0.081823
0.616570 -0.027107 0.041841
0.538611 0.059279 0.137296
0.622083 -0.028326 0.084852
0.531079 0.033250 0.126108
0.574259 -0.045615 0.091575
0.600669 0.044919 0.128693
0.602624 -0.058030 0.037218
0.592708 -0.052640 0.038693
0.565338 -0.034799 0.102273
0.546986 0.000673 0.126437
0.587097 0.049951 0.137946
0.604745 -0.019653 0.107263
0.564469 -0.008061 0.048666
0.592264 0.026826 0.136045
0.542295 0.022920 0.066504
0.600548 -0.011035 0.047177
0.617170 0.026081 0.105565
0.623307 0.000898 0.081195
0.558152 0.075570 0.094197
0.533170 -0.008343 0.091375
0.609678 0.042417 0.115737
0.580861 0.075311 0.107260
0.546962 -0.021305 0.102826
0.583975 0.049188 0.075646
0.535176 0.054698 0.134420
0.635127 -0.051517 0.047923
0.616495 0.016075 0.076722
0.580033 0.037137 0.066799
0.605785 -0.000595 0.055151
0.598923 -0.050613 0.085395
0.532583 0.068636 0.106272
0.575455 -0.010561 0.126343
0.605763 0.011303 0.122459
0.540683 0.006188 0.124899
0.579209 -0.037780 0.102408
0.629342 -0.024774 0.067551
0.530546 -0.002180 0.089286
0.578026 0.042094 0.069214
0.629465 -0.025120 0.055866
0.627245 -0.018044 0.064350
0.595812 -0.031541 0.038526
0.589636 -0.059963 0.070482
0.525944 0.039642 0.115917
0.596891 -0.063336 0.063283
0.569057 0.069170 0.139186
0.567707 0.037909 0.065269
0.595456 0.036532 0.134280
0.527608 0.028265 0.117013
0.619841 0.020853 0.096475
0.561244 0.081400 0.127018
0.586586 0.051405 0.078564
