ply
format ascii 1.0
element vertex 1024
property float x
property float y
property float z
end_header
0.591383 0.026394 0.030096
0.558069 0.007303 0.089771
0.594121 -0.041195 0.061702
0.599558 0.040371 0.066320
0.562097 -0.026406 0.018991
0.564210 0.083102 0.030546
0.514860 0.042899 0.040936
0.563422 0.053047 0.088456
0.543837 -0.045365 0.068700
0.550573 0.095619 0.058675
0.573719 -0.048848 0.022893
0.596880 -0.075006 0.043726
0.525715 0.074927 0.058317
0.544225 -0.028119 0.019391
0.570788 -0.053388 0.070328
0.574887 0.004044 0.085410
0.583644 0.040618 0.083332
0.515671 -0.012100 0.051162
0.601906 0.014859 0.044269
0.512572 0.033931 0.052240
0.571821 0.049030 0.087523
0.570432 -0.063451 0.065251
0.524812 0.002075 0.022322
0.520428 0.054807 0.064972
0.530095 0.079117 0.036824
0.570828 -0.082326 0.041474
0.567863 -0.079430 0.048405
0.514670 0.043709 0.055250
0.598728 0.010451 0.069720
0.585734 -0.076997 0.052828
0.536009 -0.003096 0.017748
0.599617 -0.030042 0.048391
0.561165 -0.078874 0.041942
0.572772 -0.022597 0.020819
0.531899 -0.019490 0.074096
0.595289 0.034798 0.035076
0.577526 -0.014720 0.080166
0.569520 -0.043145 0.021830
0.522808 0.022173 0.022640
0.595292 -0.040699 0.033517
0.551127 0.025214 0.091505
0.598163 0.012832 0.037466
0.572522 0.030303 0.089215
0.536246 -0.056049 0.041103
0.547181 0.004783 0.088566
0.529376 0.008073 0.080796
0.566448 0.041923 0.016463
0.589543 0.033191 0.028763
0.596041 -0.022469 0.063472
0.532995 0.066789 0.024206
0.561030 -0.061365 0.065351
0.564934 0.001567 0.087844
0.545999 -0.018678 0.081889
0.599181 0.049894 0.048905
0.566894 0.000975 0.087283
0.521790 -0.032389 0.040430
0.580098 0.067017 0.029512
0.543779 0.036001 0.090028
0.600882 -0.000814 0.062199
0.584443 0.066128 0.033239
0.562451 -0.064049 0.025675
0.595203 -0.076985 0.038439
0.597697 0.056379 0.058335
0.564898 0.054224 0.087926
0.548746 0.019474 0.090806
0.578992 -0.006380 0.022163
0.539526 0.089988 0.062180
0.566397 -0.065775 0.025129
0.515376 0.047948 0.053005
0.591370 0.046879 0.032686
0.521386 0.016606 0.074349
0.539869 -0.008551 0.082851
0.518840 0.055249 0.039417
0.524549 -0.010647 0.024397
0.532337 -0.040580 0.030384
0.557578 0.055749 0.015583
0.598719 -0.035559 0.041042
0.599337 0.051381 0.051694
0.550667 0.074892 0.079852
0.523944 0.062421 0.032857
0.520419 0.030070 0.025403
0.568972 -0.081908 0.041551
0.547084 -0.024001 0.080345
0.591981 -0.035998 0.065409
0.532404 0.086509 0.052300
0.584583 -0.080928 0.047018
0.555031 0.042015 0.090909
0.602915 0.023755 0.048048
0.585166 -0.051611 0.066322
0.597746 -0.004829 0.037892
0.553765 0.095929 0.046629
0.595239 -0.016099 0.035383
0.516011 0.007212 0.063262
0.575754 -0.012568 0.081402
0.535129 0.022644 0.016360
0.522410 0.064274 0.037566
0.542774 0.094095 0.049901
0.515460 0.009603 0.031630
0.585809 0.013938 0.025534
0.551731 0.062139 0.085395
0.549652 0.045983 0.089696
0.518823 0.054480 0.038708
0.591442 -0.014661 0.071483
0.556969 -0.061808 0.063671
0.576459 -0.025309 0.022189
0.596151 -0.075020 0.035937
0.566265 0.090968 0.062965
0.569884 -0.051249 0.022669
0.562648 0.056886 0.016815
0.556715 0.095501 0.045590
0.554309 0.046191 0.090086
0.586285 0.047451 0.027792
0.589375 0.045179 0.078220
0.589897 -0.057307 0.061453
0.536808 -0.038815 0.067690
0.598412 0.045341 0.043330
0.540693 -0.007338 0.083582
0.557165 0.010060 0.090243
0.564467 -0.026113 0.080877
0.541383 -0.019667 0.018352
0.599173 -0.006863 0.040551
0.567253 -0.064146 0.064626
0.530934 0.017272 0.083552
0.547046 -0.035996 0.020773
0.540546 -0.061966 0.045259
0.585640 0.044219 0.026670
0.583549 -0.034655 0.072166
0.528858 -0.044918 0.044822
0.528811 -0.031525 0.028277
0.571658 0.085266 0.037798
0.585722 0.073788 0.041746
0.554469 -0.004326 0.087401
0.521481 0.026727 0.075147
0.587195 -0.068819 0.058236
0.564941 -0.054906 0.069756
0.568863 0.040356 0.089931
0.540354 -0.032952 0.073839
0.529339 0.021406 0.018625
0.535299 0.073559 0.073677
0.534210 0.053493 0.082732
0.574340 0.068883 0.078843
0.581149 -0.034717 0.073398
0.552323 0.092239 0.038512
0.599382 -0.018224 0.043358
0.568598 0.065919 0.021497
0.573321 0.022664 0.088579
0.553784 0.066064 0.084183
0.576278 0.078533 0.034530
0.559572 0.094815 0.059657
0.534229 -0.011573 0.019484
0.593482 -0.044753 0.061622
0.551795 0.083637 0.028509
0.590010 0.071472 0.048966
0.558599 0.091496 0.067008
0.565267 0.023259 0.090766
0.551394 0.058791 0.086439
0.555113 0.011747 0.013894
0.570452 0.082009 0.033064
0.553889 -0.056024 0.025538
0.514913 0.046722 0.047934
0.527618 -0.040068 0.051398
0.583131 -0.056006 0.065884
0.596196 -0.025844 0.062287
0.518769 -0.001674 0.064927
0.592148 -0.061745 0.058229
0.538411 -0.013144 0.080712
0.592191 0.050530 0.034825
0.572818 -0.020170 0.080594
0.512593 0.000053 0.047783
0.542800 -0.006907 0.016159
0.571769 -0.008627 0.083746
0.544079 0.084620 0.030901
0.581639 -0.038329 0.072145
0.527388 -0.021369 0.025282
0.598322 0.053844 0.050467
0.532607 -0.034478 0.066311
0.540136 -0.021169 0.019021
0.529099 0.003742 0.019894
0.564556 0.092864 0.044044
0.570077 0.064023 0.021490
0.537353 -0.049950 0.032138
0.579460 0.068523 0.076149
0.594768 0.061495 0.061587
0.588049 -0.028670 0.028451
0.559813 0.008017 0.014890
0.602944 0.012012 0.060720
0.558768 0.074413 0.022190
0.533361 0.020349 0.085396
0.529066 -0.025063 0.025394
0.511866 0.012322 0.050440
0.564901 0.091710 0.062717
0.578387 -0.036008 0.074250
0.593538 0.054029 0.038324
0.570081 -0.073125 0.057893
0.549529 0.009587 0.013939
0.531506 0.063536 0.076403
0.522767 0.056424 0.031438
0.591804 0.011024 0.077468
0.543744 0.065171 0.018757
0.588683 0.073060 0.047718
0.569228 0.076505 0.027629
0.517041 0.018075 0.029163
0.513400 0.014058 0.058762
0.541383 0.053062 0.086134
0.602694 0.007371 0.060361
0.566015 -0.033236 0.020335
0.521371 0.036294 0.074038
0.553046 -0.073828 0.041090
0.591003 -0.080048 0.041339
0.559733 -0.009694 0.086006
0.565158 -0.060238 0.066852
0.582332 0.049761 0.025103
0.559184 -0.054053 0.069410
0.590166 0.014857 0.079263
0.599474 0.051078 0.052032
0.524577 0.071065 0.038776
0.590792 -0.064867 0.058051
0.527954 -0.013767 0.072621
0.578292 0.085134 0.058530
0.569190 -0.048428 0.022329
0.556317 -0.061273 0.063819
0.589373 0.066456 0.040180
0.532300 -0.044226 0.033000
0.536506 0.082273 0.032843
0.594378 -0.024537 0.034459
0.560374 -0.038124 0.020254
0.515379 -0.015024 0.046414
0.585839 0.003604 0.025907
0.522062 0.012275 0.074361
0.591814 0.014393 0.030397
0.595523 -0.042208 0.059541
0.568908 0.089545 0.041618
0.592837 0.064497 0.062912
0.511721 0.017163 0.050752
0.560654 -0.036855 0.077462
0.573618 -0.069964 0.025142
0.560915 0.073833 0.080554
0.566325 -0.074839 0.054717
0.512188 0.013548 0.053580
0.574446 -0.038024 0.075036
0.541969 0.037675 0.014716
0.578107 0.085740 0.055508
0.519969 0.012806 0.071731
0.561964 0.002992 0.015734
0.590826 0.038584 0.078385
0.597592 -0.027593 0.039297
0.570939 -0.003987 0.018696
0.533118 -0.004470 0.018977
0.543138 -0.023183 0.018568
0.550033 -0.052832 0.025737
0.559246 -0.073430 0.033382
0.600250 0.027486 0.067659
0.600270 -0.067805 0.040084
0.539520 0.074461 0.076140
0.562893 0.093366 0.060740
0.523316 0.039775 0.075897
0.566363 0.071110 0.022814
0.588348 0.062207 0.035426
0.598288 -0.072650 0.044198
0.545881 0.033962 0.013876
0.596357 0.042908 0.071258
0.534450 -0.053574 0.045321
0.537580 0.071726 0.023842
0.518100 0.056650 0.055458
0.514446 -0.003400 0.053757
0.575087 0.043894 0.087318
0.573213 -0.016029 0.020439
0.603784 0.022789 0.055174
0.589291 0.023997 0.028172
0.570128 -0.055044 0.023054
0.545482 -0.061599 0.055607
0.582869 0.066533 0.031816
0.588426 0.067303 0.039372
0.530221 0.042468 0.082297
0.529466 0.063363 0.025843
0.577925 -0.012147 0.080614
0.599756 -0.063838 0.047746
0.599077 -0.056538 0.035816
0.523428 -0.012435 0.025616
0.600166 -0.020939 0.050556
0.583531 0.073107 0.037598
0.522533 0.009030 0.023283
0.556494 0.078887 0.024778
0.581330 -0.056470 0.024411
0.580631 0.039227 0.085295
0.524091 0.011352 0.076499
0.576876 0.030515 0.019978
0.557542 -0.001179 0.015210
0.555814 0.089007 0.034392
0.589652 0.046456 0.030704
0.513262 0.038385 0.044780
0.559079 -0.072775 0.053244
0.594849 -0.003139 0.071280
0.544541 -0.004927 0.085636
0.543876 0.087478 0.034149
0.593937 0.047829 0.072885
0.533244 -0.028569 0.024084
0.587532 0.074423 0.061576
0.534210 0.068158 0.076197
0.550923 -0.057405 0.064222
0.597089 -0.050907 0.055434
0.599664 -0.027932 0.048151
0.526958 -0.041843 0.044402
0.538519 -0.046081 0.063724
0.589107 -0.062018 0.060307
0.599122 -0.058090 0.035585
0.581839 0.026437 0.085138
0.593579 -0.067174 0.028465
0.596661 -0.061960 0.031477
0.568428 0.089547 0.063718
0.552510 0.076683 0.079146
0.555822 0.094310 0.042313
0.582660 0.051605 0.025741
0.583286 0.079872 0.061304
0.541427 0.045911 0.015469
0.544228 0.073855 0.078763
0.532755 0.074550 0.070530
0.597608 0.027047 0.037269
0.566945 0.064243 0.020121
0.566212 -0.077292 0.033080
0.601423 0.024893 0.065349
0.512927 0.011459 0.056266
0.552543 0.092817 0.039415
0.596817 0.024531 0.035990
0.587347 -0.036079 0.027617
0.521266 0.052997 0.067879
0.532404 0.012842 0.083971
0.585301 -0.039467 0.069838
0.528417 0.081777 0.049918
0.523142 0.053942 0.029601
0.566014 -0.036831 0.020711
0.532412 0.041347 0.084053
0.531473 -0.040748 0.058822
0.573959 -0.018588 0.080613
0.597919 -0.059291 0.052562
0.530045 0.038540 0.082627
0.552015 -0.065207 0.031454
0.519927 0.038076 0.027691
0.522120 0.010170 0.073938
0.556363 0.093617 0.041065
0.600118 -0.050170 0.047339
0.544506 -0.028681 0.077695
0.515006 0.043414 0.057240
0.550888 0.018383 0.090981
0.598961 -0.045421 0.051921
0.585270 -0.049988 0.025783
0.545695 0.005650 0.014570
0.566345 0.006021 0.016678
0.596869 -0.049130 0.056097
0.537234 0.016263 0.015914
0.548328 -0.011959 0.015948
0.516665 0.030025 0.067452
0.569629 0.091646 0.052886
0.533773 -0.049969 0.051356
0.572194 -0.016526 0.081710
0.518501 0.045325 0.032906
0.548358 0.081043 0.026530
0.568680 -0.075569 0.054744
0.598280 -0.043095 0.037684
0.515446 0.010670 0.031712
0.568388 0.091179 0.059575
0.530567 0.066172 0.073854
0.534317 0.036897 0.017075
0.568948 -0.035369 0.020999
0.556352 0.005869 0.089586
0.542595 0.081145 0.028175
0.578308 0.030207 0.020712
0.588670 -0.045192 0.065941
0.512818 0.010552 0.038784
0.514762 0.046043 0.047352
0.575077 0.029718 0.088292
0.519436 0.060272 0.056781
0.600304 0.038768 0.044938
0.570362 0.091109 0.054298
0.531099 0.022551 0.084051
0.569666 0.065313 0.021774
0.536262 0.038083 0.016403
0.583430 -0.042086 0.070166
0.584804 -0.050164 0.025616
0.595552 -0.028550 0.035691
0.538541 0.089524 0.061606
0.571523 -0.074413 0.056850
0.523168 0.024129 0.077149
0.568985 -0.032233 0.078248
0.560363 -0.008100 0.086355
0.518194 -0.017930 0.053651
0.564745 -0.011645 0.084836
0.542601 0.048873 0.087633
0.540004 0.024900 0.088835
0.593792 -0.075936 0.048304
0.583195 0.069439 0.034102
0.559792 0.084673 0.030525
0.573753 -0.046506 0.072451
0.526822 -0.000528 0.021456
0.591258 -0.035532 0.030366
0.531900 0.062465 0.077342
0.516101 0.036746 0.064538
0.530806 -0.038795 0.059745
0.534095 0.087910 0.047927
0.534989 0.088274 0.045859
0.575702 0.087516 0.055250
0.586722 0.077085 0.052434
0.587011 0.006789 0.026647
0.539657 0.064944 0.081298
0.533973 0.007853 0.017521
0.542097 -0.035985 0.022447
0.600738 -0.003609 0.043504
0.603327 0.022347 0.059396
0.597175 -0.035812 0.037187
0.585129 -0.035099 0.071116
0.534319 0.085627 0.040248
0.600188 0.042444 0.046442
0.512534 0.004017 0.050592
0.532706 0.082484 0.063236
0.529802 0.079936 0.038562
0.563572 -0.014381 0.084343
0.564424 -0.054392 0.069978
0.513417 -0.007133 0.041393
0.557757 0.068752 0.083231
0.596076 -0.029464 0.061565
0.600094 0.027109 0.068013
0.548535 0.080139 0.025771
0.520407 0.048663 0.031280
0.535284 0.081703 0.033330
0.556687 0.086990 0.032267
0.586279 -0.023291 0.073441
0.524260 0.019064 0.077974
0.571200 0.036181 0.017737
0.522101 0.029015 0.075831
0.559556 0.019464 0.091226
0.538479 0.004436 0.016271
0.601717 -0.008389 0.052454
0.511758 0.025963 0.046454
0.580294 -0.051335 0.068712
0.572991 -0.034321 0.076602
0.576823 -0.061493 0.065643
0.517707 -0.020822 0.036977
0.575908 0.008511 0.085800
0.559662 0.061151 0.086169
0.550531 -0.000176 0.088042
0.544185 -0.055146 0.030112
0.569329 -0.045132 0.022018
0.568338 0.012078 0.088871
0.531656 0.022670 0.084431
0.562918 0.013247 0.015394
0.592686 -0.074419 0.030501
0.557036 0.033686 0.091801
0.596328 0.042075 0.038063
0.539034 0.088023 0.064724
0.525597 0.008040 0.077325
0.597658 0.041751 0.040254
0.551276 0.047950 0.014192
0.560248 -0.016012 0.017399
0.554785 0.040654 0.013716
0.566308 0.063937 0.084072
0.515616 0.043706 0.059447
0.550714 -0.004671 0.015024
0.596980 -0.029044 0.037944
0.558026 -0.032109 0.079150
0.512543 0.014348 0.055646
0.591618 0.045352 0.032582
0.564737 0.093255 0.058662
0.540741 0.092242 0.058519
0.522687 0.067474 0.040033
0.545526 0.045028 0.089236
0.600035 0.049975 0.056177
0.514284 -0.003171 0.035036
0.522342 0.061305 0.064483
0.575310 -0.009679 0.082263
0.512195 0.030134 0.044260
0.514539 0.010229 0.060853
0.602523 0.036763 0.053852
0.562676 0.079252 0.026558
0.557792 0.056727 0.087609
0.552306 -0.051290 0.024240
0.598486 -0.045141 0.053305
0.602345 0.017384 0.045498
0.551814 0.071755 0.081569
0.574319 -0.081225 0.047823
0.536589 0.083838 0.034624
0.585468 -0.039986 0.069593
0.591789 0.060437 0.039398
0.561144 0.022638 0.091324
0.571958 -0.066889 0.024476
0.561394 -0.063570 0.025839
0.591977 0.015724 0.077941
0.581070 0.032639 0.085556
0.599554 0.017715 0.069251
0.520333 0.002510 0.069205
0.526000 -0.021132 0.066542
0.553288 0.006876 0.089708
0.602069 0.013326 0.063601
0.552491 -0.046917 0.071635
0.590530 0.038111 0.078713
0.600782 -0.056797 0.041661
0.560792 -0.031135 0.019366
0.581603 0.076238 0.069096
0.587451 0.036685 0.081330
0.569953 -0.025903 0.020377
0.562874 0.079315 0.026681
0.515976 0.050739 0.051149
0.595578 0.043572 0.072152
0.537100 0.000386 0.084076
0.595221 -0.031477 0.062482
0.526342 0.009797 0.020778
0.592286 -0.044031 0.063080
0.546794 -0.010114 0.084741
0.533326 0.015558 0.017243
0.574137 -0.079133 0.031768
0.526219 0.067856 0.066862
0.516588 -0.019858 0.040808
0.571324 -0.021991 0.080586
0.563474 0.090765 0.065679
0.555065 -0.002469 0.087860
0.564644 0.090490 0.065321
0.554672 -0.027890 0.080388
0.592971 -0.036659 0.031712
0.518279 -0.019828 0.034659
0.599192 -0.034874 0.051917
0.593168 0.054112 0.037771
0.575463 0.042459 0.019929
0.532707 0.083067 0.062469
0.564155 0.044755 0.015947
0.536335 -0.050315 0.056267
0.526152 0.070719 0.034905
0.544733 0.055395 0.016079
0.595860 -0.019421 0.064622
0.545320 -0.036989 0.021589
0.595667 -0.053108 0.031775
0.544178 0.068730 0.081294
0.540101 -0.046550 0.064940
0.590403 0.066580 0.065882
0.547860 -0.069790 0.042151
0.586895 -0.040400 0.027095
0.599395 0.051869 0.057684
0.551207 0.075893 0.079412
0.582930 0.079952 0.046241
0.601605 0.041482 0.051667
0.528777 -0.000593 0.020486
0.600464 -0.059286 0.046536
0.564216 -0.024889 0.019179
0.513807 0.042159 0.048908
0.600216 0.030350 0.067335
0.566569 -0.080412 0.045193
0.517532 0.048882 0.061780
0.536378 0.026802 0.087222
0.582242 -0.039563 0.024884
0.544539 0.014633 0.014290
0.525650 -0.029269 0.059944
0.568856 -0.056304 0.023153
0.592573 -0.032961 0.031791
0.534910 -0.002000 0.082133
0.563759 0.051124 0.088918
0.564029 0.061905 0.085400
0.600516 -0.052433 0.042618
0.562580 -0.072453 0.030386
0.543156 0.030953 0.014281
0.571790 0.089867 0.057024
0.587588 0.065781 0.036857
0.533572 -0.001365 0.018472
0.541349 -0.041628 0.024951
0.583525 0.047253 0.025525
0.512689 -0.002520 0.044835
0.560415 -0.034829 0.019792
0.550202 -0.015977 0.083712
0.544197 0.063170 0.083558
0.534088 -0.049870 0.035895
0.590864 0.063176 0.039934
0.597036 -0.071612 0.033781
0.603542 0.009241 0.050605
0.567062 -0.061848 0.024046
0.550048 0.094585 0.061804
0.575861 0.086246 0.045552
0.572873 0.058917 0.021298
0.550664 0.003651 0.014296
0.565806 0.030945 0.015926
0.552508 0.061429 0.016542
0.522370 0.064957 0.038302
0.535449 0.029483 0.016271
0.599219 0.043334 0.066004
0.563705 0.090879 0.065330
0.526558 0.046754 0.078035
0.540888 0.092000 0.059584
0.592416 0.063379 0.043303
0.582757 0.012527 0.023503
0.578429 0.079144 0.037447
0.585883 0.057685 0.030390
0.535966 0.005689 0.084778
0.596264 -0.019365 0.063971
0.562889 -0.038625 0.076778
0.535588 -0.028702 0.072789
0.519754 0.045630 0.030850
0.513270 0.034362 0.056381
0.598929 -0.009210 0.062670
0.589159 0.034590 0.028529
0.572551 -0.068115 0.062239
0.514816 0.006574 0.032789
0.571588 -0.063886 0.064976
0.575494 0.019685 0.019368
0.519835 0.054702 0.036209
0.549975 0.018099 0.013530
0.524535 0.073792 0.056167
0.580698 0.054468 0.081504
0.533924 0.002911 0.017942
0.556255 0.074036 0.080752
0.541438 -0.050696 0.029355
0.598531 -0.072862 0.041770
0.522838 0.018306 0.076322
0.569920 -0.033528 0.020998
0.602145 -0.002151 0.057197
0.578901 -0.061848 0.064977
0.573302 0.080703 0.033972
0.568612 0.075961 0.026895
0.577980 -0.030396 0.022987
0.515377 0.004792 0.060823
0.537335 -0.025068 0.075733
0.595169 -0.003616 0.070752
0.556661 -0.025670 0.018153
0.592705 0.063145 0.043746
0.547845 0.040320 0.090528
0.592516 0.004795 0.075735
0.598599 -0.041077 0.053443
0.570489 0.042526 0.017813
0.560567 0.094851 0.058570
0.600408 -0.017863 0.048439
0.531869 -0.028859 0.069266
0.534009 -0.044928 0.058588
0.538272 -0.057962 0.039126
0.516502 0.015104 0.029970
0.592639 -0.030731 0.066028
0.596016 0.054615 0.066284
0.603248 0.008177 0.058276
0.579340 -0.066082 0.024227
0.586951 0.049311 0.078978
0.588888 0.059558 0.073026
0.541242 -0.059146 0.052950
0.517695 -0.000914 0.028694
0.584018 0.041151 0.024996
0.587686 0.039890 0.027776
0.576336 0.081442 0.037766
0.556019 0.011440 0.090459
0.533121 0.033959 0.085121
0.577124 0.040698 0.086883
0.528438 0.027041 0.082143
0.592528 0.016543 0.031026
0.530506 -0.009122 0.076725
0.595990 -0.054034 0.056448
0.520586 0.012052 0.072426
0.584644 -0.068060 0.059749
0.539182 -0.048949 0.061847
0.571786 -0.074003 0.027537
0.589022 0.034506 0.080394
0.560291 0.084998 0.030997
0.535228 -0.041099 0.028380
0.527683 0.018298 0.081153
0.545570 0.007164 0.088672
0.561789 0.086729 0.071541
0.591446 -0.013445 0.031201
0.558330 0.011649 0.014370
0.600216 -0.020397 0.049355
0.523477 0.071904 0.055351
0.531791 0.024933 0.084565
0.542786 0.092250 0.042502
0.535125 0.068232 0.076902
0.527690 0.039704 0.020923
0.592860 -0.076503 0.048613
0.529818 0.064517 0.025993
0.535714 -0.055618 0.043337
0.538389 0.078568 0.028057
0.596328 -0.026085 0.061988
0.573538 0.036843 0.018686
0.600715 -0.008547 0.058283
0.580795 0.061100 0.027266
0.524739 0.075735 0.050894
0.591450 0.026619 0.078856
0.537540 0.075994 0.073816
0.527424 -0.042642 0.044260
0.579610 0.065588 0.077534
0.573310 0.009340 0.086906
0.522206 -0.008328 0.067599
0.568131 -0.004376 0.085789
0.564750 0.094165 0.053655
0.565732 -0.001356 0.087056
0.555502 -0.061740 0.063082
0.567231 0.086996 0.068740
0.589643 -0.062112 0.059919
0.585154 -0.017359 0.075650
0.514705 -0.010214 0.037231
0.519432 -0.000434 0.066622
0.557481 0.028437 0.091848
0.591320 0.068274 0.047012
0.591385 0.006542 0.077053
0.597904 -0.046997 0.035915
0.574799 0.018458 0.087638
0.600349 -0.001420 0.063191
0.539241 0.092227 0.052835
0.576301 -0.006705 0.082557
0.582196 0.082134 0.056736
0.548671 0.095515 0.057715
0.519106 0.008840 0.026365
0.523086 0.018774 0.076665
0.573653 0.037722 0.088641
0.569072 0.048277 0.088590
0.602833 0.004415 0.048199
0.569652 -0.073460 0.027822
0.522713 -0.030553 0.034783
0.542969 0.094133 0.054870
0.556960 0.060891 0.086273
0.529567 0.074348 0.066709
0.546031 -0.011918 0.016192
0.570685 -0.014189 0.019519
0.554224 -0.020729 0.082784
0.593001 -0.036870 0.064083
0.540516 -0.031796 0.074502
0.568804 -0.080691 0.036458
0.552692 0.096320 0.049135
0.586523 -0.033810 0.070557
0.598875 0.051812 0.049974
0.574059 -0.008086 0.083103
0.585990 0.018872 0.025551
0.560156 -0.065891 0.061576
0.571091 0.070396 0.024893
0.550945 -0.017843 0.016661
0.527035 0.047473 0.023039
0.585650 0.075882 0.044660
0.600567 -0.012225 0.056309
0.537907 -0.013618 0.080295
0.571531 0.076396 0.028984
0.558912 0.085395 0.073379
0.566432 -0.049478 0.072292
0.600104 -0.060056 0.047735
0.514286 0.034907 0.037177
0.523862 0.053161 0.028240
0.526715 0.022524 0.019958
0.598254 -0.054186 0.052855
0.553874 -0.028187 0.018359
0.556023 0.087156 0.032348
0.551513 -0.049459 0.069862
0.591729 0.054438 0.035784
0.514831 0.009468 0.061323
0.580453 0.034050 0.085823
0.528585 0.036665 0.019895
0.561636 -0.020863 0.082763
0.528458 -0.021461 0.069601
0.590998 0.070643 0.052183
0.591836 -0.049074 0.062244
0.527254 -0.042214 0.040689
0.511948 0.016187 0.043724
0.564690 0.050025 0.016507
0.591022 0.068650 0.061727
0.561153 -0.000605 0.088005
0.546112 -0.041778 0.072069
0.590955 0.061390 0.069413
0.590304 -0.064152 0.026429
0.597793 -0.044075 0.036426
0.595826 -0.039899 0.034315
0.574374 0.009547 0.086559
0.528685 0.048077 0.079879
0.600268 -0.013535 0.044940
0.525890 0.057580 0.027444
0.559459 -0.054288 0.023442
0.551200 -0.064694 0.031624
0.521891 -0.026893 0.033209
0.521079 0.037328 0.073443
0.576326 0.078161 0.072012
0.533742 -0.052389 0.040922
0.540745 0.037291 0.014990
0.529805 0.069442 0.070861
0.574578 0.047027 0.019970
0.515458 0.033918 0.063878
0.583550 0.025179 0.023795
0.537710 -0.050387 0.032112
0.546516 -0.031958 0.077007
0.539943 0.079496 0.027968
0.575666 -0.032000 0.076418
0.526459 0.051945 0.076214
0.590718 0.046980 0.031962
0.580272 -0.068054 0.024526
0.536977 0.089734 0.045348
0.589275 0.041513 0.029431
0.525940 -0.005317 0.073579
0.574782 0.007559 0.086073
0.572134 -0.071586 0.026033
0.511906 0.014775 0.051950
0.552561 0.049564 0.089166
0.585087 0.009501 0.025148
0.554452 -0.070822 0.052285
0.531419 -0.032131 0.066561
0.591036 0.035172 0.030340
0.582340 -0.079660 0.050622
0.594459 -0.001134 0.072332
0.524646 0.045192 0.024596
0.527091 -0.027822 0.027964
0.538768 -0.026980 0.075753
0.545370 0.036374 0.090442
0.585429 -0.070666 0.057906
0.560463 0.080386 0.026752
0.562408 0.062565 0.085390
0.540128 -0.044271 0.066726
0.534879 -0.036449 0.026308
0.531099 -0.046703 0.049772
0.562385 -0.033032 0.078824
0.600755 -0.064868 0.040895
0.557396 -0.075021 0.036842
0.587181 -0.015026 0.027778
0.595574 -0.019073 0.035976
0.513813 0.039279 0.055280
0.515972 0.016375 0.065781
0.588658 0.059554 0.034318
0.553454 -0.073805 0.045109
0.575531 0.085266 0.042610
0.530100 0.055787 0.022639
0.529149 -0.036226 0.030609
0.516837 0.014170 0.067007
0.578950 -0.023286 0.077486
0.569924 0.070578 0.024326
0.539935 0.056224 0.084678
0.574456 0.059505 0.082920
0.541670 -0.053117 0.030649
0.599964 -0.056753 0.037846
0.529658 -0.022031 0.024030
0.562796 -0.067885 0.027229
0.569849 0.048318 0.088358
0.528592 -0.023731 0.068492
0.560339 -0.050307 0.071580
0.522459 0.037014 0.075333
0.534487 -0.015524 0.020040
0.563684 -0.071846 0.057144
0.578346 0.058679 0.024569
0.555961 -0.002470 0.087877
0.597555 0.005784 0.070454
0.601145 0.036946 0.046506
0.580595 0.009360 0.022290
0.549181 0.096089 0.053033
0.542141 0.085782 0.069649
0.596820 -0.003626 0.068601
0.591623 0.061964 0.040315
0.592028 0.019820 0.078226
0.512026 0.008500 0.043063
0.575014 0.029056 0.088299
0.550588 0.044682 0.090091
0.571728 0.090114 0.049013
0.579180 0.079163 0.038391
0.545418 -0.043314 0.023767
0.540003 0.020551 0.088659
0.529362 -0.029226 0.065949
0.601986 -0.004862 0.048647
0.589092 -0.072869 0.027374
0.517949 -0.015915 0.054725
0.564520 0.006770 0.088908
0.564458 0.011926 0.015874
0.596272 -0.029577 0.061186
0.597129 0.034703 0.037616
0.519678 0.049875 0.033277
0.571454 -0.043475 0.074008
0.592577 0.064886 0.045552
0.567219 -0.040177 0.075880
0.549597 0.030195 0.013410
0.602016 -0.002401 0.057612
0.553474 0.035704 0.091645
0.514244 0.015306 0.034734
0.539781 -0.011430 0.081915
0.581155 -0.030604 0.074539
0.583941 -0.065106 0.061603
0.599990 0.027679 0.041258
0.518209 0.038098 0.030113
0.556458 -0.033763 0.078412
0.523715 0.067223 0.036964
0.594884 -0.071319 0.051477
0.545017 0.004794 0.014729
0.579840 0.081804 0.064231
0.520203 -0.021192 0.032159
0.558445 0.050674 0.014986
0.597690 0.056787 0.054227
0.574847 0.017685 0.019132
0.516878 0.028374 0.068057
0.539156 0.021215 0.088364
0.585381 -0.072592 0.056673
0.516859 -0.017011 0.035847
0.516790 0.011795 0.029393
0.533715 0.027405 0.016843
0.515186 -0.014631 0.039751
0.559731 0.032998 0.091685
0.573293 0.034850 0.088915
0.538354 0.082139 0.069929
0.548666 0.062529 0.017089
0.590060 0.012605 0.079046
0.592184 -0.065180 0.056911
0.524033 0.069441 0.038353
0.572030 -0.064995 0.064290
0.529259 0.008698 0.019396
0.540857 0.091987 0.059568
0.596273 -0.034233 0.035957
0.588954 -0.044490 0.027940
0.569495 -0.010808 0.018870
0.584937 0.021245 0.083169
0.600810 -0.010509 0.056557
0.538713 0.040685 0.015766
0.580144 -0.077215 0.028780
0.592483 0.068087 0.055671
0.602733 0.033452 0.058084
0.536905 -0.014903 0.079327
0.566797 0.066434 0.082876
0.581294 0.008652 0.022724
0.566011 -0.078502 0.034706
0.602978 0.002518 0.049829
0.517011 0.039222 0.065769
0.599063 0.052753 0.052933
0.529707 -0.038988 0.057519
0.554950 0.039104 0.013660
0.528289 0.047106 0.079734
0.560868 0.030861 0.091630
0.581432 -0.034360 0.073358
0.532386 0.078740 0.066684
0.553938 -0.019441 0.016996
0.591762 0.066654 0.045742
0.597930 -0.053038 0.053619
0.559769 -0.044237 0.074373
0.514863 0.043595 0.041750
0.565098 -0.067159 0.026013
0.519148 0.061351 0.047367
0.590549 0.000576 0.029731
0.520236 0.055992 0.036222
0.536478 0.075612 0.026969
0.588160 0.001079 0.078240
0.525975 0.045342 0.023424
0.557158 0.054424 0.015301
0.527920 0.031042 0.081573
0.585352 -0.057876 0.064065
0.560145 0.089448 0.069159
0.542144 -0.062732 0.048677
0.557117 -0.041632 0.020772
0.532756 -0.028156 0.024209
0.602566 0.016495 0.062495
0.576656 0.070003 0.028424
0.597611 -0.013482 0.063534
0.580786 -0.022865 0.024006
0.556078 0.052440 0.088721
0.544119 -0.066199 0.044219
0.590837 -0.024875 0.030827
0.517279 0.007679 0.065959
0.575043 0.020596 0.019149
0.561670 -0.020174 0.018170
0.514507 -0.004901 0.052910
0.568685 -0.062403 0.065837
0.572224 -0.018622 0.081181
0.527100 -0.037259 0.054157
0.527377 -0.015607 0.071188
0.588558 0.059985 0.034427
0.602576 0.003415 0.047447
0.543942 -0.057499 0.031818
0.584068 -0.035912 0.025794
0.525351 0.039739 0.022644
0.533544 -0.001407 0.081425
0.571864 0.021363 0.017852
0.536269 -0.051868 0.034863
0.518697 0.054198 0.060857
0.544141 0.076486 0.024124
0.519229 0.058972 0.042139
0.533491 -0.011665 0.019806
0.556444 -0.015343 0.016701
0.519314 -0.015855 0.058015
0.537162 0.014469 0.086902
0.565672 0.092633 0.044770
0.563188 -0.029411 0.079981
0.536859 0.090059 0.047102
0.585120 -0.008261 0.077906
0.569796 -0.031201 0.078385
0.522274 0.068343 0.056728
0.528673 -0.007879 0.021460
0.598164 0.018677 0.037554
0.522337 0.063036 0.063007
0.521899 0.040927 0.026182
0.586526 -0.051280 0.026196
0.537549 0.085244 0.066373
0.591483 -0.035104 0.066141
0.522677 0.059981 0.066157
0.540697 -0.034363 0.073311
0.592623 0.052669 0.072469
0.564091 -0.076200 0.033113
0.556203 -0.068286 0.030943
0.535366 -0.018037 0.077318
0.528293 0.027863 0.082011
0.581143 0.064624 0.076989
0.577490 -0.013297 0.080520
0.542345 -0.018089 0.017814
0.579273 0.042524 0.085543
0.530290 0.022213 0.018191
0.575949 -0.030876 0.022289
0.602823 0.022025 0.061562
0.601250 -0.011867 0.050858
0.560971 0.075348 0.023266
0.512396 0.008537 0.052425
0.600482 0.042494 0.062984
0.582612 0.074772 0.038022
0.521775 -0.001304 0.069876
0.577865 0.037726 0.020800
0.532914 0.080964 0.065251
0.597083 -0.074573 0.044173
0.599201 0.001060 0.039657
0.570542 0.024556 0.017339
0.584036 -0.019816 0.025797
0.562791 -0.047899 0.072951
0.534507 0.081417 0.033777
0.552194 0.010595 0.090208
0.587590 0.019677 0.081472
0.523891 0.033616 0.077533
0.547746 -0.024227 0.080440
0.599447 -0.041492 0.050003
0.511701 0.013631 0.047650
0.570085 0.030405 0.017199
0.599449 -0.046900 0.039639
0.599420 -0.036535 0.044057
0.565378 -0.051025 0.022418
0.551147 -0.059960 0.062227
0.519640 0.062418 0.053671
0.557080 -0.067918 0.058066
0.569560 0.086493 0.067830
0.558988 0.027829 0.014076
0.585178 0.049263 0.080325
0.517883 0.052660 0.059597
0.603827 0.012867 0.055886
0.565678 0.093806 0.050796
0.581017 0.040208 0.022837
