ply
format ascii 1.0
element vertex 1024
property float x
property float y
property float z
end_header
0.558098 0.066820 0.012551
0.578929 0.067020 0.080385
0.612217 0.024329 0.041539
0.576154 0.097053 0.030836
0.560078 0.008489 0.031589
0.511202 0.106940 0.024616
0.505327 0.062767 0.071241
0.558068 0.106772 0.070014
0.585235 0.008896 0.081895
0.511253 0.125869 0.052465
0.581450 -0.005332 0.029107
0.621623 -0.011400 0.031103
0.505447 0.100782 0.072038
0.549459 0.001888 0.044480
0.607958 0.010851 0.065365
0.589248 0.067350 0.066037
0.574941 0.100015 0.053912
0.539916 0.020943 0.084819
0.578758 0.066433 0.016754
0.514679 0.059472 0.081972
0.565141 0.105462 0.064031
0.610135 -0.000013 0.063269
0.522725 0.022962 0.056243
0.516040 0.085101 0.082945
0.494336 0.096165 0.053226
0.607079 -0.026355 0.048487
0.607447 -0.021732 0.055098
0.512655 0.069704 0.081428
0.592947 0.072968 0.037569
0.620345 -0.012397 0.045539
0.530229 0.019906 0.045880
0.602737 0.029546 0.026887
0.599212 -0.026105 0.055087
0.566115 0.015701 0.025007
0.566994 0.029627 0.090764
0.559054 0.077295 0.012324
0.597797 0.049938 0.062834
0.575162 -0.002222 0.030551
0.511195 0.039524 0.055342
0.597230 0.012680 0.020665
0.566069 0.080882 0.084187
0.573609 0.060604 0.014777
0.576213 0.090559 0.067089
0.570604 -0.014573 0.068915
0.572426 0.061111 0.087395
0.554773 0.055166 0.093818
0.526216 0.066532 0.018226
0.552644 0.071441 0.012031
0.604768 0.041538 0.039119
0.495672 0.081030 0.043804
0.602944 -0.001004 0.069599
0.585338 0.063360 0.074975
0.580108 0.037950 0.086414
0.561407 0.097331 0.017548
0.586621 0.063195 0.073292
0.548519 0.000857 0.075500
0.529371 0.097599 0.014878
0.554859 0.087176 0.086885
0.596049 0.060757 0.032148
0.534731 0.099783 0.014620
0.583446 -0.020336 0.040798
0.618638 -0.015905 0.028762
0.562265 0.106536 0.024458
0.558136 0.107975 0.068468
0.567090 0.075004 0.086061
0.562551 0.031879 0.019618
0.508845 0.119353 0.063317
0.586627 -0.020862 0.037890
0.509692 0.072515 0.078816
0.548923 0.085304 0.011834
0.541575 0.057171 0.093715
0.571380 0.045122 0.090080
0.500718 0.073742 0.065857
0.530271 0.013026 0.059489
0.554148 -0.007362 0.062084
0.512765 0.075209 0.022021
0.600958 0.021369 0.022985
0.562274 0.099866 0.019234
0.533676 0.117677 0.070020
0.496750 0.078445 0.056766
0.507065 0.046717 0.057970
0.605687 -0.026520 0.049775
0.582724 0.033086 0.085232
0.610165 0.029726 0.045003
0.500538 0.109932 0.061681
0.618428 -0.018629 0.042707
0.559615 0.096010 0.078955
0.576899 0.075933 0.017623
0.614268 0.014876 0.052331
0.582701 0.045712 0.017579
0.506563 0.121775 0.041665
0.585504 0.034316 0.018947
0.536809 0.042728 0.090751
0.596201 0.051776 0.064670
0.515581 0.040828 0.042283
0.497376 0.081633 0.060939
0.502100 0.118389 0.051838
0.517817 0.030651 0.068390
0.558372 0.052602 0.014738
0.544015 0.109638 0.074812
0.553368 0.097232 0.081327
0.500714 0.072774 0.065463
0.602120 0.050309 0.047015
0.599586 -0.003330 0.071279
0.570690 0.015108 0.023761
0.616868 -0.015061 0.026083
0.526311 0.128497 0.045209
0.580052 -0.008607 0.031908
0.516180 0.078225 0.019238
0.508147 0.121834 0.038936
0.556531 0.098968 0.078348
0.542600 0.082117 0.011816
0.573532 0.103334 0.045739
0.617640 0.009317 0.046308
0.576683 0.011902 0.085233
0.560191 0.090790 0.014696
0.571696 0.046716 0.089875
0.577170 0.069293 0.081002
0.595511 0.036711 0.073820
0.542653 0.007741 0.044656
0.586151 0.045587 0.018730
0.608065 -0.001824 0.065118
0.552554 0.064634 0.093541
0.556142 -0.003332 0.044491
0.578769 -0.016471 0.069623
0.543231 0.078693 0.011872
0.607655 0.031327 0.055476
0.562048 -0.005711 0.075284
0.545995 -0.001674 0.061901
0.518957 0.114187 0.024325
0.536288 0.110400 0.018811
0.581276 0.055056 0.082655
0.536844 0.066120 0.092949
0.620049 -0.002654 0.047340
0.604592 0.007571 0.069204
0.569009 0.098296 0.068876
0.579358 0.020633 0.086404
0.513669 0.039052 0.048060
0.520888 0.109248 0.076462
0.535526 0.095921 0.086154
0.551757 0.119199 0.053640
0.606790 0.031102 0.058022
0.503061 0.114644 0.037367
0.593705 0.037266 0.021999
0.517988 0.089710 0.017303
0.580337 0.084048 0.067040
0.542666 0.113038 0.072036
0.523672 0.108423 0.019646
0.518112 0.128303 0.047022
0.534398 0.012962 0.049406
0.613593 0.021090 0.042370
0.501661 0.102796 0.031713
0.544268 0.112897 0.021250
0.523232 0.128442 0.053328
0.575949 0.083115 0.074103
0.546099 0.107162 0.076205
0.532968 0.036470 0.028039
0.517247 0.108984 0.022211
0.573605 -0.016153 0.045633
0.507234 0.069104 0.075692
0.562342 0.000924 0.080203
0.614964 0.010355 0.053981
0.605963 0.038204 0.038593
0.544128 0.036759 0.091132
0.619637 0.004809 0.043014
0.571623 0.039855 0.090148
0.548750 0.089583 0.012326
0.597761 0.044109 0.067085
0.529756 0.028827 0.083035
0.535781 0.018002 0.040520
0.592838 0.054958 0.068603
0.497407 0.102382 0.038637
0.608290 0.027638 0.057245
0.538164 0.005182 0.059491
0.559660 0.101109 0.018758
0.570926 0.013715 0.086624
0.542980 0.006392 0.046183
0.523341 0.024582 0.051338
0.513805 0.121257 0.032732
0.519935 0.088543 0.016510
0.563247 -0.013029 0.061023
0.553820 0.119234 0.048223
0.559488 0.111427 0.028155
0.583474 0.018474 0.020589
0.538527 0.035151 0.025954
0.589957 0.071581 0.028063
0.507530 0.094279 0.023548
0.553570 0.068776 0.092781
0.541236 0.002604 0.058869
0.524397 0.040171 0.083888
0.524896 0.128611 0.045886
0.606113 0.029561 0.060704
0.549748 0.094489 0.013436
0.610861 -0.011551 0.059503
0.530446 0.032995 0.032214
0.525080 0.100831 0.082282
0.498298 0.072392 0.057326
0.592369 0.074804 0.047796
0.500564 0.080463 0.032687
0.541890 0.113296 0.021087
0.516301 0.101564 0.019892
0.513118 0.037209 0.064483
0.529082 0.045764 0.088513
0.542325 0.099193 0.083647
0.591995 0.067418 0.028563
0.566918 0.004465 0.030680
0.531216 0.073700 0.091041
0.590809 -0.024627 0.059481
0.619061 -0.018473 0.034116
0.586738 0.051464 0.078687
0.605895 0.001841 0.067661
0.537334 0.081710 0.012360
0.600185 0.006426 0.072844
0.590301 0.078352 0.049726
0.562706 0.099800 0.019415
0.495952 0.088562 0.059445
0.620264 0.001683 0.044220
0.560636 0.032647 0.091736
0.534777 0.125188 0.034452
0.577951 -0.006574 0.031795
0.598962 -0.003006 0.071769
0.541613 0.104588 0.016086
0.557447 -0.009308 0.064422
0.494720 0.098994 0.045560
0.588793 0.026507 0.019946
0.565700 -0.001391 0.035146
0.538626 0.016288 0.082018
0.563940 0.044024 0.016275
0.544264 0.053709 0.093798
0.564750 0.056919 0.013968
0.612472 0.022937 0.039160
0.517041 0.118675 0.028408
0.557398 0.113978 0.030059
0.521971 0.044364 0.083605
0.596685 0.024974 0.075385
0.593537 -0.022252 0.033416
0.541332 0.120144 0.063544
0.607536 -0.015522 0.060069
0.525701 0.042689 0.085740
0.605004 0.027026 0.064247
0.511393 0.054871 0.034492
0.532681 0.124314 0.032361
0.541170 0.052377 0.093316
0.543000 0.031908 0.025690
0.577984 0.098253 0.045675
0.595141 0.027010 0.021531
0.554124 0.029979 0.022441
0.529719 0.018421 0.048928
0.545741 0.005382 0.044032
0.569535 -0.014511 0.048048
0.590432 -0.025839 0.049662
0.584006 0.086939 0.032919
0.618120 -0.005897 0.025267
0.524545 0.112354 0.075170
0.521635 0.128543 0.045669
0.531714 0.078047 0.090575
0.514563 0.094021 0.019137
0.540523 0.098590 0.013955
0.621587 -0.008778 0.030166
0.515416 0.052522 0.031648
0.575457 0.100423 0.036242
0.570465 -0.011154 0.072843
0.495928 0.086416 0.039749
0.508328 0.081776 0.077578
0.536042 0.029088 0.086420
0.569826 0.101996 0.062263
0.562801 0.021228 0.023609
0.581886 0.078513 0.022197
0.556906 0.063319 0.012936
0.582386 -0.011577 0.032487
0.587508 -0.010129 0.073496
0.532706 0.099030 0.014652
0.540109 0.104667 0.016063
0.538370 0.085205 0.089991
0.496029 0.077798 0.047842
0.596975 0.052433 0.062553
0.619945 0.000685 0.030563
0.609166 0.001408 0.021655
0.531131 0.011715 0.061355
0.599581 0.038372 0.026903
0.532922 0.107342 0.017473
0.518164 0.028596 0.057634
0.505148 0.098530 0.026401
0.591217 -0.008849 0.025861
0.574763 0.098805 0.057568
0.547248 0.054474 0.094023
0.540887 0.061528 0.014916
0.541968 0.026827 0.028907
0.504756 0.111133 0.032428
0.546924 0.083561 0.011672
0.508726 0.060163 0.075642
0.600906 -0.016583 0.063789
0.598286 0.060991 0.043067
0.574103 0.050810 0.088363
0.497582 0.106173 0.040725
0.572221 0.104586 0.038459
0.545069 0.000303 0.055481
0.548052 0.120214 0.031547
0.524351 0.105460 0.079682
0.593646 -0.001161 0.075311
0.615738 0.014227 0.036249
0.601544 0.031241 0.026419
0.558980 -0.003858 0.075918
0.579380 0.004512 0.082142
0.618926 0.004588 0.046633
0.609871 0.000005 0.021655
0.582082 0.088265 0.058219
0.607016 -0.012476 0.021583
0.607998 -0.005815 0.020930
0.528878 0.128271 0.044422
0.533570 0.119432 0.068017
0.506375 0.119116 0.037379
0.536947 0.083651 0.012355
0.542299 0.123443 0.033616
0.507193 0.062014 0.034371
0.529389 0.114401 0.073842
0.516976 0.107942 0.075870
0.565788 0.072389 0.013243
0.517013 0.087193 0.017683
0.596832 -0.027167 0.045101
0.584845 0.084075 0.030791
0.528743 0.042323 0.087394
0.503403 0.115598 0.037783
0.565867 0.069459 0.013198
0.586385 0.011624 0.021411
0.519124 0.085099 0.084653
0.556040 0.061506 0.093373
0.610012 0.026748 0.053211
0.499060 0.103687 0.063348
0.498818 0.069592 0.056073
0.568983 0.001587 0.031398
0.541353 0.085683 0.089859
0.569305 0.004768 0.082882
0.597702 0.045796 0.066109
0.619038 0.006110 0.034685
0.540468 0.081972 0.090839
0.580378 -0.021880 0.052280
0.503862 0.054357 0.058933
0.545158 0.051758 0.093721
0.506403 0.118141 0.036205
0.612893 0.012188 0.028312
0.581994 0.027187 0.085725
0.514122 0.070431 0.082644
0.569155 0.074796 0.084836
0.612198 0.017883 0.031771
0.591205 -0.001581 0.023290
0.530314 0.028798 0.035813
0.544828 0.036195 0.022943
0.615040 0.015960 0.036649
0.520016 0.035855 0.041306
0.541902 0.015279 0.037169
0.527747 0.064087 0.090416
0.522625 0.125634 0.035640
0.571476 -0.005644 0.077144
0.596081 0.047499 0.067853
0.502046 0.062369 0.062715
0.499659 0.098703 0.033016
0.609473 -0.015427 0.058546
0.602720 0.013377 0.021850
0.517302 0.031587 0.068324
0.525730 0.127815 0.041305
0.521700 0.101660 0.080793
0.508073 0.052970 0.041569
0.570310 0.003826 0.029385
0.578442 0.065213 0.081624
0.496730 0.097796 0.038167
0.542389 0.062018 0.014483
0.613038 0.021187 0.048827
0.519527 0.033820 0.075179
0.507166 0.068227 0.075468
0.577684 0.090417 0.064735
0.508060 0.085824 0.077136
0.565714 0.086497 0.015347
0.524159 0.126020 0.036201
0.550208 0.069374 0.093120
0.519155 0.089638 0.016834
0.508366 0.054258 0.039596
0.610319 0.024118 0.055070
0.590898 -0.001943 0.023517
0.592315 0.024002 0.020508
0.508123 0.118414 0.063651
0.611898 -0.012672 0.057924
0.540394 0.065306 0.093525
0.600193 0.031718 0.069588
0.586518 0.053155 0.078298
0.545955 0.017855 0.085566
0.590391 0.050790 0.074625
0.546114 0.096669 0.084392
0.557466 0.076124 0.090045
0.622595 -0.011091 0.036609
0.532676 0.102595 0.015684
0.507480 0.106945 0.027467
0.607512 0.018498 0.063954
0.524914 0.020976 0.054560
0.590180 0.014464 0.020581
0.526409 0.100455 0.082808
0.522301 0.068327 0.087897
0.568366 0.006630 0.083755
0.498518 0.109695 0.057230
0.497780 0.109359 0.055097
0.530043 0.124988 0.033623
0.541116 0.118198 0.025289
0.563469 0.047397 0.015589
0.532391 0.106609 0.079926
0.523108 0.028470 0.045760
0.553810 -0.004060 0.049109
0.587119 0.050110 0.019333
0.584137 0.079863 0.025566
0.597956 0.018996 0.021353
0.608343 0.030959 0.053691
0.495623 0.104446 0.051912
0.564564 0.090237 0.016035
0.529213 0.033404 0.084572
0.508831 0.111432 0.069735
0.494675 0.097537 0.054560
0.590764 0.047907 0.075431
0.604110 0.007950 0.069656
0.530498 0.020172 0.078829
0.543359 0.116080 0.068270
0.607360 0.034785 0.038617
0.584293 0.086729 0.033326
0.499826 0.097656 0.032469
0.500676 0.065047 0.059822
0.494481 0.098362 0.046825
0.505204 0.108749 0.030567
0.604271 0.042326 0.053065
0.544183 0.061705 0.093987
0.533002 0.063647 0.016553
0.536443 0.068544 0.092718
0.574418 0.078402 0.078864
0.527143 0.026369 0.042176
0.595154 0.050297 0.025603
0.515082 0.049933 0.079428
0.612244 0.014710 0.057370
0.602995 0.030418 0.065903
0.613531 0.003722 0.058871
0.537961 0.007913 0.074434
0.587823 0.071610 0.065046
0.550154 0.111505 0.069985
0.576899 0.057679 0.085322
0.569300 -0.016286 0.055498
0.576167 -0.003879 0.031065
0.582701 0.073727 0.072028
0.550721 0.069808 0.092988
0.538137 0.040726 0.023504
0.611295 -0.017980 0.024553
0.565727 0.089947 0.079240
0.557616 0.085083 0.012812
0.510936 0.118663 0.065709
0.550402 0.052483 0.093979
0.559860 0.086171 0.013485
0.511898 0.066113 0.026381
0.552615 0.016038 0.030440
0.517710 0.060771 0.024523
0.551920 0.114921 0.063539
0.515585 0.071833 0.083751
0.539192 0.021754 0.033947
0.594746 0.025002 0.021178
0.593436 0.028954 0.077811
0.526657 0.044381 0.086860
0.549818 0.084039 0.011780
0.521759 0.128083 0.042929
0.506463 0.120011 0.059594
0.497260 0.085512 0.062098
0.550903 0.094991 0.083982
0.565924 0.100859 0.022106
0.525523 0.020984 0.073220
0.513667 0.090959 0.080458
0.594890 0.054469 0.065228
0.512006 0.052628 0.077046
0.532958 0.043783 0.089686
0.573107 0.089388 0.020385
0.509993 0.101466 0.023332
0.552006 0.107837 0.072857
0.569406 -0.013188 0.045217
0.612503 0.018588 0.033047
0.578416 0.069244 0.017006
0.536993 0.116119 0.070836
0.612291 -0.021584 0.050432
0.494945 0.101128 0.046571
0.610255 0.026251 0.052987
0.545879 0.099867 0.014609
0.573872 0.081606 0.077435
0.590492 -0.020436 0.033710
0.582595 -0.020173 0.041587
0.590313 0.079043 0.047424
0.578601 0.093472 0.058273
0.589476 0.079159 0.035754
0.545343 0.042654 0.092560
0.559819 0.023150 0.089700
0.575979 0.065206 0.083709
0.590288 0.073702 0.030550
0.593328 0.011454 0.078171
0.578215 0.097910 0.046173
0.613632 0.004272 0.024652
0.561872 0.004261 0.033351
0.547359 0.123297 0.040767
0.578371 0.096938 0.050344
0.565732 0.011867 0.027061
0.510158 0.101632 0.023274
0.507622 0.074239 0.076732
0.575095 0.101147 0.037333
0.565618 0.052404 0.091750
0.608344 0.033229 0.040113
0.518888 0.029278 0.053119
0.613237 0.021987 0.044144
0.577771 0.046695 0.086814
0.518547 0.034679 0.045047
0.602261 -0.026941 0.038905
0.514132 0.098709 0.078637
0.538836 0.010084 0.077808
0.597718 0.042118 0.068342
0.526077 0.128690 0.049096
0.580959 0.057008 0.082336
0.526790 0.128648 0.048065
0.589735 0.032073 0.080488
0.592626 0.014614 0.020489
0.536548 0.007904 0.072267
0.606895 0.026882 0.030288
0.549159 0.094206 0.013290
0.533759 0.071200 0.014366
0.508108 0.111588 0.069117
0.522963 0.068019 0.019095
0.576036 -0.003010 0.078895
0.495035 0.087032 0.055650
0.504795 0.071299 0.031325
0.603706 0.044572 0.039679
0.555972 -0.004327 0.046391
0.602933 0.001516 0.020723
0.533397 0.111161 0.076314
0.581329 0.005122 0.081966
0.556357 0.116325 0.033594
0.585903 -0.022286 0.063325
0.588035 0.007600 0.021894
0.565353 0.102936 0.023382
0.533270 0.118492 0.069208
0.533742 0.116767 0.023165
0.568865 0.092148 0.018881
0.525696 0.021076 0.052524
0.617392 0.004218 0.028643
0.560786 0.010488 0.030063
0.509403 0.065340 0.077721
0.582324 0.089211 0.032355
0.605340 -0.024364 0.053839
0.515449 0.077815 0.083430
0.553217 0.075944 0.091177
0.583335 0.005948 0.023447
0.524758 0.035936 0.035292
0.560168 0.013247 0.086280
0.582257 -0.012980 0.033597
0.590497 0.017661 0.020357
0.564346 0.048875 0.092189
0.559537 0.105447 0.070349
0.552205 0.113106 0.066316
0.611728 0.008310 0.024969
0.590467 -0.025338 0.045102
0.515407 0.049340 0.034202
0.527237 0.126594 0.037301
0.538963 0.102021 0.015050
0.528133 0.020964 0.047866
0.557613 -0.007958 0.052110
0.539645 0.080128 0.012147
0.529528 0.025378 0.081198
0.563769 0.001208 0.034377
0.582472 0.042292 0.084455
0.537530 0.107456 0.078603
0.563129 -0.012279 0.065943
0.544151 0.102147 0.015288
0.614501 -0.012862 0.023513
0.586220 0.064955 0.020819
0.584437 -0.017815 0.036168
0.513164 0.126216 0.055178
0.525471 0.119687 0.026791
0.524303 0.084967 0.015073
0.534456 0.028465 0.032424
0.531175 0.056808 0.019664
0.507030 0.078929 0.025507
0.497401 0.082524 0.061403
0.512206 0.046675 0.041143
0.574225 0.099322 0.030476
0.525978 0.128701 0.048674
0.531408 0.085865 0.088971
0.507270 0.120319 0.060278
0.546917 0.104265 0.016577
0.555982 0.049602 0.015591
0.526371 0.110867 0.020148
0.538474 0.091807 0.012658
0.562518 0.056866 0.092371
0.603585 0.044453 0.038930
0.598690 0.023840 0.073572
0.573458 0.022350 0.088431
0.501579 0.062095 0.060349
0.517191 0.061870 0.084371
0.599367 0.053273 0.034888
0.551540 0.072407 0.011956
0.612280 -0.004658 0.060247
0.519598 0.028405 0.070038
0.610967 -0.000158 0.062327
0.545244 0.051677 0.016797
0.499889 0.072162 0.062960
0.526113 0.040156 0.030549
0.504078 0.098522 0.071473
0.564843 0.110061 0.052923
0.525863 0.024456 0.046711
0.538279 0.119014 0.066891
0.564782 -0.013670 0.056308
0.620521 -0.009954 0.028302
0.542733 0.059912 0.093896
0.569994 0.005674 0.028479
0.594817 0.057797 0.027891
0.614711 0.003747 0.057002
0.520291 0.109128 0.021043
0.515774 0.100596 0.019866
0.574757 0.011604 0.023909
0.536303 0.039416 0.089764
0.574344 0.027244 0.088854
0.598452 0.060451 0.042530
0.555670 0.007123 0.034672
0.547471 0.104349 0.016720
0.555569 0.092265 0.083879
0.595104 0.068978 0.046852
0.610552 0.022124 0.032559
0.529296 0.068842 0.016306
0.518148 0.128151 0.045556
0.596985 0.040116 0.024847
0.569162 0.019556 0.088530
0.573001 0.001881 0.081481
0.571835 -0.016461 0.066346
0.514744 0.034889 0.065801
0.608213 0.034654 0.044326
0.566446 0.108044 0.031484
0.590795 0.067347 0.026599
0.594780 -0.017662 0.028313
0.570222 0.106444 0.047441
0.562922 0.113076 0.040592
0.581997 -0.010487 0.074244
0.523106 0.021119 0.066073
0.542832 0.074874 0.012193
0.547419 0.076124 0.011780
0.523985 0.112330 0.021538
0.575823 0.070215 0.081777
0.546225 0.080108 0.091049
0.572575 0.099705 0.060943
0.545092 0.071542 0.093050
0.564453 0.059230 0.013650
0.562166 0.039149 0.092297
0.617192 0.011699 0.038122
0.542347 0.052228 0.093476
0.618816 -0.002105 0.050087
0.580266 0.001454 0.080709
0.595740 -0.025162 0.036891
0.580013 0.095148 0.048862
0.507899 0.107576 0.027416
0.555210 -0.007823 0.058722
0.548573 0.063478 0.093965
0.570197 0.062693 0.088290
0.530282 0.127353 0.054929
0.579343 0.033591 0.018279
0.535391 0.037555 0.026158
0.598673 0.038317 0.025948
0.503911 0.096248 0.071864
0.549713 0.071824 0.092706
0.498993 0.113570 0.046810
0.525301 0.106106 0.079538
0.504390 0.055067 0.048544
0.622447 -0.011713 0.037545
0.495746 0.078947 0.047560
0.571261 -0.013382 0.070815
0.495239 0.094309 0.041322
0.606010 0.037907 0.038320
0.534715 0.065323 0.015522
0.597783 0.052434 0.030454
0.531653 0.091806 0.013541
0.500307 0.097904 0.067347
0.584838 0.088516 0.047074
0.521175 0.112039 0.074702
0.559621 -0.004459 0.075595
0.556197 0.117402 0.049469
0.586298 0.072025 0.067528
0.551291 0.033327 0.091478
0.589378 0.058375 0.072044
0.518544 0.126652 0.039254
0.586940 0.060775 0.074229
0.598263 -0.003969 0.071869
0.532173 0.127967 0.049135
0.619114 0.004497 0.045997
0.601681 0.047986 0.054670
0.530647 0.016114 0.075368
0.544853 0.038753 0.091720
0.568759 0.085656 0.079622
0.545707 0.109718 0.019356
0.594184 0.070701 0.048354
0.603518 0.009181 0.021344
0.582964 0.080512 0.065874
0.596558 0.060523 0.033298
0.502361 0.117046 0.056604
0.594164 0.057413 0.064376
0.537903 0.123021 0.030848
0.509531 0.124792 0.053115
0.517708 0.028772 0.062221
0.542843 0.060533 0.093909
0.572804 0.096925 0.064970
0.564314 0.104475 0.066788
0.586927 0.059598 0.020207
0.594216 -0.025213 0.038505
0.545069 0.000199 0.070623
0.504940 0.120669 0.055224
0.548572 0.110526 0.071965
0.512888 0.105137 0.075394
0.540509 0.014736 0.038930
0.559685 0.021627 0.024479
0.587057 0.039058 0.081602
0.610556 0.028706 0.043463
0.579232 0.021952 0.086617
0.602147 -0.027784 0.046126
0.507035 0.122891 0.044138
0.608284 0.032220 0.052166
0.560802 0.099335 0.018279
0.593707 0.055816 0.066492
0.555949 0.056841 0.014007
0.602635 -0.006761 0.068093
0.519177 0.095741 0.017423
0.547053 0.011390 0.036597
0.501107 0.062383 0.049527
0.536761 0.113435 0.020667
0.598502 0.048406 0.029616
0.571308 0.039120 0.090261
0.518612 0.102755 0.019270
0.530095 0.126176 0.058395
0.604159 0.013729 0.069291
0.618213 0.003987 0.029840
0.507016 0.054173 0.069973
0.498945 0.068546 0.054707
0.512102 0.039804 0.050686
0.616779 0.010662 0.034021
0.555256 0.004252 0.037065
0.504727 0.108727 0.031064
0.593027 0.008229 0.077909
0.546954 0.093178 0.012837
0.533802 0.043433 0.089911
0.577613 0.094600 0.058715
0.505983 0.052308 0.047574
0.591977 0.041145 0.076464
0.563284 0.024951 0.090207
0.547113 0.113907 0.022952
0.615090 0.017215 0.044494
0.557324 -0.005720 0.073125
0.518759 0.040509 0.078582
0.520898 0.072888 0.018461
0.553408 0.116432 0.029957
0.584069 0.060465 0.077983
0.586726 0.014095 0.082259
0.561344 0.113651 0.036366
0.602185 -0.011790 0.022031
0.602216 0.011847 0.021418
0.597606 0.013867 0.020761
0.586698 0.072364 0.066519
0.533134 0.088431 0.088639
0.592732 0.042197 0.021920
0.497554 0.072541 0.052182
0.575209 -0.013946 0.040066
0.579671 -0.021614 0.052901
0.541773 0.002360 0.069619
0.530163 0.074226 0.090692
0.544506 0.124638 0.046255
0.566969 -0.012300 0.070064
0.510939 0.054300 0.035583
0.517864 0.102883 0.078789
0.530838 0.074822 0.014437
0.522978 0.065449 0.088230
0.550123 0.060681 0.013664
0.563693 -0.013304 0.060811
0.584629 0.024707 0.084254
0.495729 0.095518 0.040066
0.603450 0.033099 0.063627
0.527658 0.089428 0.087098
0.548045 0.084877 0.011760
0.596575 -0.018922 0.028125
0.498048 0.110962 0.053173
0.548533 0.078701 0.011650
0.555473 0.039624 0.092755
0.587727 0.070589 0.066139
0.593891 -0.023675 0.035280
0.523986 0.042925 0.084625
0.553134 0.100898 0.078486
0.559981 0.048459 0.015521
0.596333 -0.016730 0.066073
0.569070 0.015459 0.087332
0.553466 0.074257 0.011867
0.618282 -0.016636 0.046661
0.597573 0.063037 0.043833
0.501576 0.060426 0.052574
0.542780 0.000811 0.062407
0.576283 0.026061 0.088114
0.555938 0.088148 0.086028
0.619664 -0.004890 0.048561
0.508062 0.101851 0.024862
0.550796 0.113178 0.067351
0.581151 0.007847 0.082929
0.551438 -0.004902 0.056912
0.567162 -0.004373 0.077465
0.596593 0.029328 0.074673
0.617366 -0.002908 0.025138
0.591943 -0.026213 0.053600
0.575480 0.029473 0.019005
0.587586 0.032159 0.019508
0.514399 0.065710 0.082598
0.533431 0.051586 0.091420
0.541488 0.095949 0.013286
0.593275 -0.022715 0.062047
0.524143 0.117462 0.025054
0.498599 0.070161 0.046077
0.549929 -0.004527 0.063908
0.535813 0.050517 0.091965
0.601686 0.041927 0.061017
0.518005 0.095297 0.017808
0.538940 0.100797 0.083223
0.558923 0.113089 0.057626
0.566897 -0.015080 0.057369
0.610976 0.002385 0.022507
0.539306 0.004747 0.057111
0.586510 -0.022797 0.042141
0.564675 0.104639 0.066080
0.563935 0.022580 0.089611
0.600199 0.010898 0.073114
0.532269 0.075205 0.091115
0.536916 0.009937 0.050117
0.605590 -0.012706 0.063247
0.529815 0.087838 0.013629
0.581557 0.057282 0.081726
0.594994 0.068990 0.039487
0.568070 0.085896 0.016105
0.555535 0.045742 0.016626
0.506995 0.123367 0.049368
0.516842 0.119862 0.067330
0.598358 0.059986 0.039860
0.545485 0.101515 0.015184
0.588386 0.082653 0.047077
0.522422 0.033732 0.079022
0.577988 0.089841 0.064868
0.554872 0.096584 0.081122
0.522663 0.123255 0.031628
0.527373 0.111523 0.020295
0.560503 -0.008694 0.048660
0.559617 0.072364 0.090466
0.565883 0.017036 0.087961
0.591413 0.051687 0.022274
0.606417 -0.019116 0.024633
0.545342 0.019961 0.086245
0.582962 0.068111 0.075366
0.540094 0.040278 0.022942
0.607338 0.034580 0.038227
0.561706 0.078882 0.012862
0.500670 0.066735 0.061593
0.605294 0.021065 0.066274
0.547480 0.106581 0.017873
0.601840 0.023421 0.070126
0.519545 0.050234 0.029212
0.595090 0.057730 0.028306
0.562262 0.090526 0.081346
0.515778 0.036486 0.070722
0.572297 0.042246 0.089838
0.605295 0.035089 0.058313
0.617847 0.001004 0.051521
0.569217 0.075392 0.014342
0.504054 0.054931 0.061841
0.592857 0.026761 0.078582
0.496376 0.084253 0.059238
0.622669 -0.005457 0.037525
0.530399 0.027941 0.036504
0.540649 0.125341 0.037842
0.537140 0.006220 0.069331
0.515629 0.070907 0.021632
0.559791 0.105069 0.021496
0.545724 0.049687 0.017329
0.529074 0.063020 0.090904
0.558555 0.072544 0.090760
0.619951 -0.007078 0.047961
0.534814 0.010390 0.073743
0.516326 0.031918 0.065605
0.512458 0.044651 0.043011
0.534632 0.013627 0.077375
0.567787 0.090117 0.077374
0.574203 0.094506 0.065773
0.516395 0.115772 0.070610
0.504242 0.078957 0.028422
0.591276 0.076318 0.049928
0.620712 0.001331 0.042484
0.496202 0.086838 0.059726
0.611453 -0.001268 0.061673
0.520610 0.028607 0.050254
0.507248 0.120292 0.060290
0.595873 0.019522 0.020908
0.591966 0.005123 0.021578
0.556800 0.023849 0.024420
0.585715 0.083924 0.055324
0.597911 0.050040 0.029409
0.508278 0.056911 0.037118
0.603567 -0.024844 0.032379
0.551327 0.113722 0.024717
0.577284 0.088512 0.023656
0.570783 0.037307 0.090430
0.550292 0.116655 0.062039
0.556599 0.045542 0.016537
0.598220 -0.027534 0.046546
0.588899 0.058753 0.021502
0.522294 0.071237 0.087831
0.562066 0.101492 0.020131
0.566520 0.005158 0.082962
0.518589 0.059484 0.024563
0.533296 0.087427 0.088932
0.569608 0.088622 0.076814
0.606769 0.031472 0.057753
0.512453 0.109685 0.072872
0.550027 0.011076 0.034959
0.546135 0.107919 0.018351
0.616394 0.011874 0.034644
0.598223 0.017099 0.074731
0.505417 0.063716 0.071730
0.586976 -0.022031 0.039590
0.502136 0.082504 0.070521
0.570698 0.044548 0.016102
0.499492 0.073379 0.062530
0.494916 0.090756 0.042246
0.595545 0.065637 0.052116
0.501725 0.060433 0.050802
0.513019 0.073837 0.022279
0.542371 0.074525 0.092503
0.616388 0.008632 0.051383
0.526487 0.128116 0.054039
0.582093 -0.015137 0.071035
0.565662 -0.005104 0.038211
0.544604 0.000562 0.055857
0.588367 0.076046 0.029024
0.524972 0.098622 0.016119
0.601186 0.049643 0.036950
0.573264 0.019267 0.021744
0.553710 0.104185 0.075371
0.582729 -0.019449 0.066937
0.584648 0.023566 0.019866
0.538883 0.044690 0.091727
0.544357 0.052218 0.016840
0.556124 0.013277 0.030522
0.536392 0.027462 0.085965
0.608770 0.000612 0.064766
0.596894 0.045501 0.067719
0.562067 0.004364 0.082168
0.560421 0.030285 0.091350
0.541260 0.096331 0.013379
0.586861 0.058343 0.019977
0.571296 -0.017599 0.057172
0.583146 0.009985 0.022370
0.503784 0.055159 0.051383
0.562755 0.048658 0.092560
0.541161 0.051348 0.018028
0.565026 -0.013776 0.063948
0.512956 0.082256 0.081301
0.497926 0.092528 0.034804
0.500545 0.078210 0.067054
0.534140 0.012806 0.050159
0.549390 0.015164 0.032499
0.548016 0.021868 0.087625
0.559931 0.065593 0.091950
0.515055 0.121714 0.032502
0.595884 0.033143 0.074484
0.498767 0.111975 0.054458
0.598196 0.056674 0.055156
0.600267 0.032894 0.068993
0.505720 0.093481 0.074121
0.529931 0.015305 0.054199
0.570636 0.065593 0.014107
0.511958 0.091772 0.079197
0.502851 0.056695 0.056138
0.592924 -0.002119 0.022875
0.512306 0.116595 0.068257
0.609778 0.030657 0.045755
0.515493 0.090675 0.081579
0.580023 0.019308 0.085967
0.568628 0.108110 0.038469
0.594894 -0.026859 0.046459
0.584435 -0.023465 0.049398
0.570289 0.033309 0.090464
0.544499 0.072137 0.092953
0.557401 0.116804 0.048141
0.597232 0.051288 0.062932
0.542173 0.009127 0.043410
0.572304 0.101301 0.058273
0.513637 0.039828 0.046992
0.573288 0.010285 0.024882
0.585164 0.080395 0.027492
0.595768 0.046510 0.025230
0.509083 0.096202 0.022667
0.527793 0.037998 0.085403
0.573828 0.097656 0.027562
0.531691 0.108664 0.018202
0.548630 0.040149 0.092513
0.538260 0.068291 0.013911
0.510861 0.111094 0.071210
0.621777 -0.010776 0.031225
0.581582 0.051910 0.017085
0.538361 0.053432 0.018181
0.574804 0.023607 0.020380
0.601317 0.014272 0.072085
0.494365 0.098085 0.047717
0.573613 0.068250 0.084357
0.587334 0.082639 0.052476
0.536175 0.073723 0.092109
0.583327 0.033132 0.084869
0.609432 0.020510 0.029581
0.522078 0.040000 0.081859
0.534961 0.058187 0.017667
0.606530 0.011365 0.022903
0.603581 0.022080 0.024761
0.576842 -0.009870 0.034826
0.594017 -0.004137 0.074060
0.505375 0.086332 0.074520
0.599735 -0.010941 0.067990
0.533460 0.127834 0.046936
0.527295 0.051322 0.023469
0.569825 0.106468 0.049632
0.512525 0.080156 0.081164
0.587436 0.070438 0.023915
0.517766 0.125364 0.036626
0.540164 0.072230 0.012860
