ply
format ascii 1.0
element vertex 1024
property float x
property float y
property float z
end_header
0.611325 0.038187 0.037217
0.564702 0.007269 0.080873
0.615147 -0.032063 0.062219
0.605407 0.048197 0.075153
0.596037 -0.016010 0.012767
0.576439 0.090373 0.033472
0.533611 0.043143 0.023729
0.562611 0.053093 0.085206
0.566585 -0.043548 0.051985
0.552863 0.097212 0.056522
0.609385 -0.037089 0.018373
0.628875 -0.062570 0.043384
0.533104 0.073726 0.046315
0.579464 -0.020043 0.007145
0.592624 -0.048184 0.061676
0.582336 0.006803 0.082006
0.585175 0.044151 0.085971
0.540217 -0.012159 0.029029
0.618657 0.026332 0.053040
0.529424 0.032543 0.032870
0.571423 0.050346 0.086745
0.595522 -0.057451 0.055942
0.555423 0.006752 0.006064
0.529387 0.052394 0.049168
0.543206 0.081243 0.027872
0.606392 -0.072817 0.032120
0.600984 -0.071265 0.037913
0.528846 0.042027 0.037206
0.608484 0.018235 0.075584
0.615937 -0.067160 0.048133
0.568177 0.003712 0.004996
0.622603 -0.018639 0.052423
0.596635 -0.070727 0.029682
0.604834 -0.011135 0.018301
0.549483 -0.020362 0.055313
0.612051 0.046292 0.043884
0.589520 -0.010609 0.076369
0.604849 -0.031883 0.016473
0.550149 0.026207 0.007384
0.624934 -0.027707 0.036118
0.554724 0.023753 0.081726
0.617603 0.024756 0.045242
0.574627 0.031807 0.087004
0.569823 -0.051385 0.022635
0.555299 0.003552 0.075962
0.540511 0.005521 0.063092
0.589678 0.052043 0.017515
0.608901 0.044807 0.035927
0.613318 -0.013644 0.066076
0.551872 0.071163 0.015918
0.586348 -0.056622 0.053131
0.572669 0.002768 0.080830
0.560122 -0.018779 0.067333
0.608911 0.059806 0.059434
0.574775 0.002512 0.080894
0.552617 -0.029899 0.019240
0.594273 0.076742 0.036361
0.546534 0.033606 0.078829
0.614691 0.008431 0.068272
0.597326 0.075935 0.041217
0.600467 -0.053845 0.016031
0.629276 -0.064034 0.037693
0.603521 0.064746 0.068364
0.563964 0.054509 0.085290
0.553654 0.017898 0.079809
0.607575 0.005427 0.022957
0.542356 0.089796 0.055732
0.604614 -0.054962 0.016666
0.529509 0.046581 0.035678
0.607143 0.057978 0.041360
0.533638 0.013732 0.055119
0.552422 -0.009740 0.067075
0.535783 0.055994 0.024634
0.556620 -0.006059 0.006869
0.566961 -0.035269 0.012558
0.579379 0.064609 0.014934
0.624955 -0.023207 0.044752
0.607944 0.060920 0.062234
0.549764 0.074059 0.074754
0.541424 0.064565 0.020730
0.545756 0.033298 0.009861
0.604563 -0.072654 0.031618
0.562493 -0.023668 0.065792
0.611136 -0.027718 0.065441
0.539336 0.086764 0.043811
0.617313 -0.070406 0.041959
0.555804 0.040847 0.083846
0.616965 0.034708 0.057670
0.607036 -0.044061 0.062765
0.619980 0.007287 0.044033
0.559550 0.099516 0.046257
0.620265 -0.003781 0.039910
0.533600 0.005270 0.042140
0.587123 -0.008885 0.077132
0.563559 0.029082 0.005549
0.538218 0.065568 0.024814
0.548545 0.095869 0.045583
0.542536 0.011722 0.012389
0.609572 0.025829 0.030058
0.551128 0.060930 0.079255
0.550495 0.044216 0.081273
0.536113 0.055330 0.023897
0.605238 -0.007617 0.072761
0.583142 -0.057359 0.050182
0.608304 -0.013507 0.020572
0.630620 -0.061650 0.035813
0.566981 0.094092 0.065312
0.606260 -0.039912 0.016705
0.583554 0.066216 0.017850
0.562705 0.099612 0.046209
0.554700 0.044967 0.083183
0.603813 0.058533 0.035136
0.591382 0.050045 0.083419
0.613916 -0.048410 0.059257
0.559245 -0.037881 0.049279
0.610674 0.055967 0.053556
0.552767 -0.008539 0.068134
0.563256 0.009801 0.081252
0.578945 -0.023580 0.071810
0.575739 -0.011964 0.005942
0.620822 0.005121 0.046833
0.592855 -0.058460 0.054254
0.539601 0.014400 0.066963
0.582968 -0.027606 0.008713
0.573526 -0.057196 0.027461
0.604088 0.055420 0.033598
0.600920 -0.028374 0.069150
0.559923 -0.041885 0.024644
0.562829 -0.026545 0.010175
0.580798 0.092500 0.042917
0.594618 0.082506 0.050282
0.563979 -0.004311 0.076493
0.531816 0.023587 0.056746
0.614278 -0.059648 0.054383
0.587577 -0.050352 0.059096
0.569329 0.041124 0.087317
0.559687 -0.032473 0.056717
0.557638 0.026822 0.005681
0.537520 0.071588 0.063797
0.536976 0.050531 0.070287
0.573223 0.071329 0.081057
0.598301 -0.028906 0.069518
0.561332 0.096775 0.037837
0.622009 -0.006389 0.048595
0.586183 0.075241 0.024958
0.576828 0.024485 0.086030
0.552783 0.065211 0.079114
0.587245 0.086908 0.040793
0.561113 0.097449 0.060328
0.567362 -0.005077 0.005339
0.615158 -0.035632 0.061637
0.565364 0.089572 0.027532
0.596765 0.079828 0.058288
0.558459 0.093093 0.066650
0.568510 0.023747 0.085499
0.551037 0.057458 0.079848
0.584822 0.021266 0.008865
0.581677 0.089768 0.037795
0.591178 -0.047040 0.013767
0.530855 0.045985 0.030652
0.555919 -0.038144 0.030831
0.605989 -0.048585 0.061319
0.614386 -0.016785 0.064730
0.537122 -0.003329 0.043869
0.617755 -0.052057 0.056589
0.552478 -0.014160 0.064201
0.606646 0.061390 0.043947
0.585874 -0.016627 0.074776
0.536393 -0.000164 0.025854
0.575654 0.001049 0.005407
0.582016 -0.005833 0.078361
0.557236 0.089230 0.027338
0.599742 -0.032227 0.068198
0.560762 -0.016350 0.007738
0.606972 0.063373 0.060953
0.555030 -0.033976 0.046967
0.574611 -0.013689 0.006037
0.559918 0.009262 0.005322
0.570958 0.098231 0.047103
0.587881 0.073569 0.025279
0.572648 -0.044066 0.015069
0.578913 0.071989 0.080169
0.598928 0.068969 0.070892
0.617756 -0.016147 0.029982
0.589523 0.018072 0.011032
0.614976 0.021498 0.068625
0.575372 0.082235 0.023100
0.540794 0.017494 0.069751
0.562905 -0.019780 0.008085
0.532872 0.011451 0.029141
0.565659 0.094679 0.064694
0.595662 -0.030642 0.069307
0.606243 0.064541 0.047973
0.599072 -0.066035 0.048095
0.579935 0.018418 0.006898
0.534765 0.060889 0.064284
0.541749 0.058707 0.018509
0.599497 0.016886 0.080655
0.563894 0.071673 0.014176
0.595650 0.081383 0.056811
0.583127 0.084918 0.031820
0.543393 0.020577 0.011292
0.531431 0.012257 0.037621
0.542702 0.050581 0.075803
0.615616 0.016951 0.067818
0.600407 -0.022397 0.014744
0.530488 0.033122 0.056465
0.588472 -0.066699 0.026642
0.624945 -0.067967 0.038791
0.570221 -0.008727 0.076457
0.589560 -0.055183 0.055989
0.600569 0.060650 0.031503
0.582156 -0.050208 0.056956
0.596776 0.020206 0.082128
0.608018 0.060596 0.062572
0.538755 0.072362 0.027230
0.617053 -0.055277 0.055717
0.545310 -0.015049 0.053110
0.580576 0.090489 0.064591
0.605253 -0.037184 0.016393
0.582398 -0.056935 0.050152
0.599727 0.075975 0.049392
0.566711 -0.039203 0.014703
0.549928 0.085694 0.026489
0.621131 -0.012064 0.038054
0.595955 -0.027916 0.012413
0.541903 -0.014444 0.024221
0.611181 0.015627 0.029556
0.534977 0.009560 0.054990
0.613604 0.026407 0.036640
0.617298 -0.032594 0.060560
0.576332 0.095849 0.045969
0.596216 0.071496 0.071757
0.531843 0.016150 0.029792
0.578202 -0.034177 0.066450
0.612058 -0.058153 0.018694
0.559312 0.074243 0.078683
0.596826 -0.067783 0.043733
0.531994 0.012284 0.032304
0.592060 -0.033234 0.068588
0.568006 0.044952 0.007497
0.581244 0.091459 0.061737
0.533750 0.010161 0.051874
0.592099 0.013298 0.012110
0.593772 0.043727 0.083498
0.623136 -0.015292 0.043405
0.600724 0.007202 0.017256
0.565314 0.001828 0.005091
0.577892 -0.015223 0.006427
0.586983 -0.044424 0.012958
0.596610 -0.064494 0.021452
0.607754 0.035446 0.075565
0.631999 -0.054576 0.041667
0.540556 0.072692 0.067572
0.564122 0.096310 0.062313
0.531159 0.036549 0.059141
0.582830 0.079883 0.025900
0.600945 0.072294 0.044228
0.629660 -0.060136 0.044485
0.572538 0.041916 0.007678
0.600457 0.049629 0.078963
0.566423 -0.049739 0.026223
0.555467 0.076652 0.017489
0.529867 0.055161 0.039605
0.536836 -0.004108 0.031796
0.575387 0.045746 0.087192
0.604287 -0.004572 0.018636
0.615719 0.032930 0.064580
0.610359 0.035816 0.034521
0.606991 -0.043661 0.016831
0.574866 -0.057566 0.038848
0.596229 0.076318 0.039396
0.598953 0.076792 0.048392
0.535187 0.039239 0.067651
0.548621 0.067125 0.016017
0.589331 -0.008088 0.077137
0.628482 -0.051753 0.049041
0.630361 -0.043092 0.038200
0.555485 -0.008122 0.007500
0.620948 -0.009906 0.055399
0.593970 0.082102 0.045604
0.551849 0.013169 0.006803
0.571704 0.085999 0.025164
0.617288 -0.043802 0.021659
0.581972 0.042138 0.086716
0.536363 0.008632 0.057590
0.600217 0.041707 0.023287
0.588808 0.008699 0.009821
0.566413 0.094591 0.034834
0.606221 0.057603 0.038896
0.531660 0.037995 0.026447
0.590164 -0.066492 0.040144
0.606599 0.004172 0.074647
0.555334 -0.005945 0.071529
0.555565 0.091585 0.030567
0.596878 0.053939 0.080112
0.567798 -0.022516 0.007927
0.590036 0.080747 0.069591
0.536602 0.065807 0.065361
0.576589 -0.053881 0.049087
0.621470 -0.040401 0.056481
0.622375 -0.016527 0.052388
0.557770 -0.039051 0.023882
0.563274 -0.044279 0.045500
0.614306 -0.052990 0.057526
0.630730 -0.044582 0.037868
0.585252 0.029742 0.085896
0.629250 -0.053283 0.028593
0.630341 -0.048159 0.032872
0.569004 0.092875 0.066611
0.551414 0.076150 0.074842
0.563084 0.098759 0.042733
0.600375 0.062420 0.032365
0.585252 0.085593 0.068398
0.565912 0.052878 0.008715
0.544246 0.072356 0.071533
0.535954 0.072650 0.060085
0.614811 0.038682 0.046061
0.585339 0.073563 0.022983
0.603857 -0.067355 0.023127
0.609996 0.033353 0.073558
0.532193 0.009971 0.034900
0.561163 0.097252 0.038808
0.614882 0.036277 0.044389
0.618575 -0.023409 0.028349
0.529564 0.050339 0.052027
0.541575 0.010179 0.067469
0.604075 -0.032571 0.067131
0.537123 0.081914 0.039868
0.543079 0.056557 0.016696
0.600879 -0.025980 0.014799
0.536875 0.038188 0.069928
0.557328 -0.039296 0.039024
0.586677 -0.014928 0.075299
0.624517 -0.048156 0.053351
0.535565 0.035312 0.067577
0.589091 -0.057087 0.017956
0.543269 0.040801 0.012522
0.535509 0.007555 0.054436
0.564093 0.098312 0.041679
0.626704 -0.038220 0.049917
0.561673 -0.028249 0.062062
0.528589 0.041518 0.039164
0.555785 0.017078 0.080584
0.623415 -0.034305 0.054247
0.619485 -0.037105 0.024781
0.576797 0.013973 0.005908
0.595409 0.016713 0.014687
0.620767 -0.038769 0.057182
0.566716 0.023139 0.005287
0.581723 -0.003178 0.006598
0.529161 0.027225 0.048201
0.573155 0.096521 0.056985
0.563319 -0.047079 0.031982
0.584345 -0.013273 0.075925
0.539121 0.047056 0.017568
0.563188 0.086841 0.024327
0.599142 -0.068202 0.044468
0.626828 -0.030228 0.040818
0.542323 0.012758 0.012551
0.569989 0.095019 0.062834
0.534248 0.063696 0.061797
0.560237 0.042892 0.007146
0.603296 -0.024204 0.016152
0.563388 0.005664 0.080017
0.557265 0.085984 0.023996
0.601380 0.041491 0.024421
0.609381 -0.037251 0.064089
0.537680 0.011372 0.018336
0.531007 0.045375 0.029998
0.577403 0.031682 0.086923
0.530111 0.058718 0.041591
0.613024 0.049539 0.055140
0.573489 0.095901 0.058509
0.538734 0.019545 0.067927
0.587197 0.074746 0.025519
0.562071 0.044397 0.007249
0.602651 -0.035429 0.066609
0.619129 -0.037316 0.024456
0.622506 -0.016020 0.039263
0.541690 0.089289 0.054831
0.600958 -0.066977 0.047478
0.533199 0.020986 0.058966
0.584997 -0.028667 0.070305
0.570441 -0.007125 0.077124
0.542762 -0.017893 0.031712
0.575598 -0.009846 0.076834
0.544063 0.046422 0.077263
0.545194 0.022366 0.075543
0.624713 -0.064485 0.046603
0.595346 0.078914 0.041897
0.572052 0.091352 0.032136
0.593608 -0.041319 0.065220
0.558002 0.004566 0.005691
0.621290 -0.022732 0.032262
0.535018 0.059763 0.065207
0.528438 0.034143 0.045835
0.556096 -0.037584 0.039837
0.542050 0.088935 0.040366
0.543471 0.089681 0.038743
0.578782 0.092930 0.060854
0.591686 0.084465 0.060943
0.611525 0.018810 0.030903
0.540641 0.062675 0.071677
0.564544 0.014242 0.005029
0.577812 -0.028451 0.008668
0.620834 0.008131 0.050397
0.614049 0.031879 0.068367
0.624751 -0.023146 0.040597
0.602799 -0.028469 0.068642
0.545025 0.087733 0.033022
0.611843 0.052938 0.056824
0.534813 0.003354 0.028810
0.536876 0.081405 0.053866
0.542256 0.081781 0.029480
0.575102 -0.012620 0.075758
0.586940 -0.049943 0.059179
0.540333 -0.006278 0.019511
0.556356 0.068489 0.079744
0.615094 -0.020264 0.063710
0.607559 0.035008 0.075815
0.563738 0.086075 0.023596
0.540863 0.050796 0.016940
0.548726 0.084912 0.026500
0.568223 0.093000 0.032952
0.601213 -0.017021 0.072192
0.534796 0.016040 0.059677
0.594672 0.046842 0.019791
0.531808 0.025825 0.057784
0.563644 0.019221 0.083745
0.569712 0.011628 0.005044
0.619749 0.002378 0.058741
0.531771 0.025370 0.026493
0.601687 -0.044732 0.063440
0.589602 -0.029987 0.069894
0.601061 -0.054757 0.058568
0.547971 -0.018599 0.015618
0.582437 0.011273 0.083081
0.558473 0.060876 0.082499
0.559411 -0.000822 0.076153
0.580527 -0.048027 0.014966
0.604938 -0.033885 0.016421
0.573810 0.013401 0.083788
0.539117 0.019683 0.068477
0.591414 0.023545 0.012959
0.628969 -0.060788 0.029612
0.558771 0.032800 0.084647
0.610899 0.053185 0.047644
0.541427 0.087465 0.057801
0.538059 0.005462 0.058584
0.611515 0.052748 0.050114
0.575193 0.056316 0.010910
0.593094 -0.005822 0.011529
0.579824 0.049659 0.011003
0.564890 0.064745 0.082934
0.528425 0.041593 0.041466
0.583047 0.004414 0.007118
0.623223 -0.016619 0.041811
0.574438 -0.030073 0.067574
0.531552 0.012842 0.034432
0.607657 0.056523 0.041216
0.566514 0.096712 0.060953
0.544264 0.092651 0.052873
0.537184 0.068423 0.027494
0.546933 0.042807 0.079409
0.607434 0.059037 0.066565
0.542473 -0.001434 0.014143
0.530264 0.059091 0.049877
0.585965 -0.006216 0.078038
0.532178 0.029816 0.024919
0.532475 0.008365 0.039642
0.612655 0.046678 0.064089
0.576876 0.086918 0.028895
0.557001 0.056098 0.082872
0.589324 -0.042419 0.012422
0.622494 -0.034273 0.055416
0.618270 0.028708 0.054551
0.550817 0.070897 0.076483
0.607503 -0.072123 0.039330
0.549194 0.087008 0.028323
0.604393 -0.033027 0.066912
0.603220 0.070473 0.048945
0.564579 0.022532 0.084622
0.610206 -0.055256 0.017781
0.599348 -0.053531 0.015879
0.598741 0.021465 0.081550
0.583384 0.035685 0.086555
0.608211 0.025542 0.076019
0.536567 0.000420 0.048757
0.546582 -0.021737 0.046134
0.560316 0.006243 0.079212
0.613044 0.022297 0.071159
0.574027 -0.044348 0.057453
0.593470 0.043181 0.083671
0.630181 -0.043898 0.044238
0.595475 -0.020875 0.012297
0.581848 0.080777 0.074877
0.590007 0.041039 0.085006
0.602876 -0.014688 0.016686
0.577012 0.086988 0.029080
0.530191 0.049646 0.034361
0.599341 0.050063 0.079605
0.547982 -0.001474 0.068067
0.614338 -0.022473 0.064125
0.556068 0.014743 0.005757
0.613465 -0.035268 0.062678
0.558573 -0.010635 0.070992
0.562760 0.021769 0.005198
0.611986 -0.067972 0.024335
0.532077 0.065714 0.053933
0.545572 -0.018301 0.018938
0.584777 -0.018608 0.074126
0.563556 0.093176 0.066935
0.564088 -0.002470 0.077275
0.564809 0.093103 0.066958
0.570220 -0.026520 0.067993
0.622660 -0.023796 0.033997
0.549065 -0.017243 0.013707
0.621901 -0.023907 0.055199
0.606056 0.064648 0.047339
0.596950 0.053271 0.023774
0.537020 0.082079 0.053193
0.587227 0.054600 0.016513
0.564245 -0.047738 0.037414
0.541491 0.072734 0.024073
0.567259 0.062544 0.011164
0.612291 -0.010822 0.067354
0.581262 -0.028911 0.008833
0.627864 -0.039626 0.033566
0.544252 0.066979 0.073471
0.564453 -0.044697 0.047124
0.592670 0.072839 0.073929
0.582624 -0.063536 0.026279
0.619023 -0.027646 0.027348
0.606055 0.060617 0.067931
0.550241 0.075171 0.074600
0.589594 0.087612 0.054112
0.611701 0.051486 0.062126
0.560144 0.004882 0.005412
0.628775 -0.047029 0.048514
0.597712 -0.014271 0.013764
0.530266 0.041230 0.030825
0.607352 0.038299 0.075487
0.600934 -0.071973 0.034384
0.528643 0.046619 0.044721
0.541990 0.023983 0.072996
0.615220 -0.027129 0.023813
0.574327 0.022690 0.006015
0.549644 -0.028910 0.039131
0.605976 -0.045077 0.016403
0.621656 -0.020223 0.034249
0.546929 -0.003843 0.065322
0.563099 0.051185 0.085591
0.562676 0.062280 0.083268
0.628918 -0.039770 0.045415
0.600502 -0.062710 0.019806
0.570355 0.038555 0.006915
0.574182 0.094504 0.061438
0.599201 0.075521 0.045624
0.565386 0.005005 0.005023
0.577260 -0.034424 0.010308
0.601966 0.058282 0.032082
0.537823 -0.002291 0.022897
0.595596 -0.024611 0.012266
0.563046 -0.015825 0.070651
0.544479 0.061217 0.075144
0.568409 -0.044902 0.017542
0.601737 0.072975 0.049376
0.631560 -0.057903 0.034358
0.619138 0.020185 0.059070
0.604930 -0.050874 0.016193
0.551569 0.095716 0.059208
0.582157 0.092982 0.051673
0.591397 0.068934 0.025587
0.581861 0.012683 0.007110
0.591046 0.041241 0.015882
0.573402 0.069413 0.014650
0.537840 0.066138 0.025551
0.562763 0.035857 0.006141
0.604702 0.051108 0.074991
0.563863 0.093364 0.066691
0.532382 0.043544 0.062798
0.544109 0.092291 0.053903
0.602108 0.072930 0.053071
0.607578 0.024318 0.027029
0.588250 0.087400 0.044294
0.600947 0.068197 0.038304
0.545832 0.003500 0.068799
0.612863 -0.010630 0.066879
0.580798 -0.035540 0.066391
0.554856 -0.028769 0.054522
0.540883 0.047787 0.016068
0.528718 0.032511 0.037032
0.614095 -0.000134 0.067374
0.608384 0.046163 0.035698
0.599209 -0.061366 0.053413
0.542070 0.008509 0.013016
0.596761 -0.057694 0.056025
0.600891 0.030965 0.021356
0.537802 0.056008 0.021895
0.579082 0.026896 0.007369
0.532855 0.072743 0.043811
0.580713 0.057627 0.084442
0.565179 0.009323 0.004997
0.554854 0.073817 0.077360
0.577461 -0.043907 0.013726
0.630677 -0.059992 0.042263
0.534103 0.015330 0.057593
0.603904 -0.022269 0.016623
0.617649 0.007939 0.063866
0.603272 -0.054751 0.058592
0.584276 0.088731 0.039474
0.582868 0.084401 0.030881
0.610315 -0.018417 0.021397
0.534162 0.003132 0.039435
0.554978 -0.025362 0.058168
0.607141 0.003815 0.074215
0.591088 -0.015874 0.010258
0.602279 0.072679 0.053563
0.549475 0.038307 0.080992
0.601726 0.011084 0.078738
0.621889 -0.030282 0.055923
0.592941 0.052978 0.020159
0.562377 0.097756 0.059633
0.621329 -0.006572 0.053743
0.552496 -0.028938 0.049975
0.560461 -0.043048 0.039285
0.572649 -0.052744 0.021278
0.543125 0.017482 0.011627
0.610695 -0.022539 0.066678
0.599764 0.061748 0.075147
0.616650 0.018090 0.066105
0.617061 -0.053481 0.020031
0.588198 0.053695 0.083682
0.590182 0.064801 0.079571
0.571321 -0.055349 0.035162
0.547269 0.002060 0.009481
0.603595 0.052417 0.031236
0.606370 0.051282 0.034948
0.585815 0.089347 0.044101
0.561889 0.010981 0.081194
0.538420 0.030876 0.070549
0.577953 0.042923 0.087184
0.536099 0.023867 0.065635
0.613724 0.028529 0.037646
0.545659 -0.010697 0.058196
0.620640 -0.043749 0.056815
0.534234 0.009407 0.052667
0.611295 -0.059429 0.055035
0.564950 -0.046765 0.043712
0.610261 -0.062674 0.020011
0.592127 0.039223 0.084457
0.572319 0.091673 0.032771
0.570376 -0.035143 0.011575
0.537136 0.015307 0.063727
0.553367 0.005671 0.075733
0.560818 0.088219 0.071563
0.617579 -0.001108 0.034953
0.587701 0.021520 0.010359
0.621280 -0.009208 0.054331
0.532428 0.070859 0.042539
0.538830 0.021907 0.068837
0.551162 0.095033 0.038469
0.537227 0.065905 0.066331
0.552374 0.044292 0.008830
0.623837 -0.065203 0.046541
0.548714 0.068286 0.016370
0.568559 -0.051324 0.024599
0.553788 0.082926 0.022292
0.614643 -0.016965 0.064472
0.596456 0.047669 0.021505
0.617022 0.001325 0.063886
0.596596 0.071311 0.033981
0.534368 0.075375 0.039077
0.596174 0.031986 0.083147
0.539174 0.074251 0.064865
0.558381 -0.039758 0.023835
0.579104 0.068940 0.081276
0.579525 0.011608 0.083340
0.540599 -0.009779 0.046954
0.577277 -0.002391 0.079447
0.567935 0.098268 0.056321
0.574141 0.000101 0.080106
0.581941 -0.057402 0.049152
0.566739 0.089550 0.070732
0.614945 -0.052963 0.057329
0.598498 -0.011627 0.074398
0.543340 -0.008592 0.015759
0.537011 -0.002249 0.045784
0.560035 0.027692 0.084399
0.599124 0.077111 0.056612
0.599970 0.012482 0.079754
0.627667 -0.033878 0.038705
0.579194 0.020665 0.085277
0.613983 0.007636 0.068980
0.544631 0.093192 0.047031
0.586313 -0.003204 0.078887
0.585282 0.088279 0.063931
0.551399 0.096992 0.054987
0.547713 0.012135 0.008564
0.534152 0.015776 0.058036
0.574646 0.039320 0.087453
0.568642 0.049112 0.086785
0.620016 0.015668 0.056171
0.608085 -0.062452 0.019625
0.554937 -0.027231 0.014381
0.547174 0.095277 0.050326
0.555954 0.060260 0.081690
0.534193 0.072546 0.055427
0.579491 -0.003466 0.006078
0.601905 -0.002967 0.017096
0.567880 -0.019856 0.070699
0.612647 -0.028270 0.064454
0.559443 -0.031404 0.057490
0.605790 -0.070808 0.026872
0.557702 0.099432 0.048296
0.604066 -0.026949 0.068680
0.607977 0.061511 0.060500
0.584271 -0.004922 0.078551
0.608926 0.030700 0.030545
0.587448 -0.060686 0.048914
0.586725 0.079514 0.029346
0.584917 -0.008719 0.007634
0.549827 0.051565 0.011255
0.593300 0.084170 0.053176
0.618102 -0.002048 0.061673
0.552213 -0.014636 0.063605
0.584879 0.084928 0.033840
0.557772 0.086296 0.072239
0.587292 -0.045160 0.062424
0.628191 -0.047990 0.049460
0.535556 0.035710 0.019337
0.544304 0.056062 0.015586
0.554583 0.027407 0.006169
0.623902 -0.043133 0.054162
0.588829 -0.018734 0.009329
0.567549 0.093067 0.032824
0.574081 -0.046739 0.055252
0.605273 0.065046 0.045024
0.532728 0.007592 0.040117
0.582491 0.036957 0.086722
0.554031 0.041556 0.007902
0.574846 -0.019032 0.073096
0.547985 -0.022149 0.049790
0.596824 0.078717 0.061570
0.614133 -0.040172 0.061323
0.559263 -0.038888 0.020454
0.534404 0.016147 0.023170
0.586688 0.059775 0.017656
0.594203 0.075502 0.070394
0.569437 0.000126 0.079562
0.567077 -0.040175 0.056201
0.592940 0.067343 0.077000
0.626321 -0.050465 0.025857
0.626924 -0.031088 0.039393
0.625054 -0.026958 0.037111
0.580595 0.011994 0.083379
0.533581 0.044873 0.065341
0.621577 -0.001875 0.050765
0.545725 0.060770 0.015870
0.596759 -0.044341 0.013765
0.588191 -0.056710 0.017891
0.554056 -0.023531 0.012937
0.530230 0.034179 0.055895
0.575685 0.081604 0.076053
0.566935 -0.048085 0.021949
0.566838 0.044381 0.007322
0.533929 0.067206 0.059004
0.595358 0.057642 0.023904
0.528505 0.031367 0.044767
0.606153 0.036817 0.028620
0.573063 -0.044445 0.015125
0.564306 -0.031121 0.061799
0.555118 0.084049 0.022795
0.591782 -0.027339 0.070791
0.532003 0.048872 0.061485
0.606741 0.058089 0.040474
0.618164 -0.055339 0.020453
0.545251 0.091439 0.039035
0.607075 0.052864 0.037163
0.541739 -0.007129 0.054057
0.581455 0.010157 0.082890
0.610658 -0.060055 0.018911
0.532036 0.013668 0.030780
0.552796 0.048179 0.082027
0.609745 0.021426 0.029088
0.585810 -0.065040 0.037889
0.553454 -0.031854 0.047009
0.609482 0.046738 0.038066
0.613883 -0.069923 0.044722
0.605578 0.005954 0.075677
0.547481 0.048810 0.011748
0.560709 -0.023084 0.009625
0.556626 -0.027059 0.058497
0.547833 0.034122 0.079771
0.613031 -0.061646 0.053340
0.574558 0.087722 0.028446
0.561054 0.062722 0.082783
0.563549 -0.042689 0.049004
0.569931 -0.030344 0.009898
0.560773 -0.044004 0.029887
0.578771 -0.030377 0.068618
0.631719 -0.051734 0.042834
0.594061 -0.066752 0.023970
0.614912 -0.002759 0.030202
0.620882 -0.006739 0.040330
0.528762 0.037559 0.036583
0.531274 0.013939 0.045263
0.602015 0.069873 0.043065
0.587599 -0.067153 0.030560
0.582925 0.092364 0.048714
0.551456 0.060184 0.012577
0.563192 -0.031429 0.012088
0.532065 0.011721 0.046516
0.593093 -0.018493 0.073599
0.585779 0.079618 0.028444
0.541281 0.053694 0.074222
0.573603 0.061589 0.084149
0.577672 -0.046427 0.014817
0.630596 -0.043457 0.040384
0.563385 -0.016544 0.007248
0.600937 -0.057776 0.017287
0.569434 0.049284 0.086825
0.548828 -0.024216 0.048601
0.581947 -0.046664 0.059689
0.530985 0.033799 0.058099
0.568079 -0.009002 0.005617
0.593107 -0.065501 0.045401
0.595540 0.068973 0.030439
0.564923 -0.002358 0.077585
0.607924 0.013399 0.075501
0.613622 0.047649 0.056739
0.606452 0.021087 0.024915
0.553240 0.098240 0.050796
0.543170 0.085013 0.063267
0.609358 0.004301 0.072732
0.602528 0.071832 0.049881
0.598027 0.025460 0.082176
0.535944 0.008688 0.021932
0.577449 0.031022 0.086854
0.551462 0.043005 0.081843
0.576577 0.095796 0.053899
0.588656 0.087391 0.045430
0.581713 -0.035402 0.010387
0.545962 0.018115 0.075014
0.551242 -0.029182 0.046002
0.620606 0.006381 0.055541
0.626324 -0.059313 0.025621
0.541868 -0.016086 0.032810
0.571096 0.007689 0.082130
0.592923 0.022381 0.013805
0.615413 -0.020299 0.063407
0.612998 0.046101 0.046870
0.539360 0.051629 0.018681
0.590474 -0.038841 0.066185
0.601311 0.074135 0.055366
0.585386 -0.036390 0.066835
0.576780 0.038753 0.008142
0.617440 0.007622 0.064193
0.555155 0.034347 0.083502
0.539495 0.016761 0.015388
0.553104 -0.012458 0.065926
0.597276 -0.025013 0.070937
0.609574 -0.056861 0.056796
0.615696 0.039084 0.050648
0.540903 0.040282 0.014239
0.573472 -0.031803 0.066228
0.539143 0.068714 0.024922
0.623989 -0.060225 0.050332
0.576253 0.013023 0.005764
0.580797 0.086663 0.070186
0.551867 -0.018007 0.011871
0.581209 0.059811 0.014233
0.604727 0.065688 0.064529
0.600688 0.028948 0.020755
0.529444 0.025550 0.048703
0.545152 0.018698 0.074514
0.613686 -0.063383 0.052003
0.546903 -0.014814 0.014595
0.544118 0.014343 0.010902
0.561303 0.033516 0.005938
0.543731 -0.013204 0.017920
0.561443 0.032486 0.085363
0.574696 0.036415 0.087353
0.540137 0.080908 0.061986
0.569455 0.069928 0.013998
0.597114 0.018007 0.081702
0.618763 -0.055254 0.055074
0.538644 0.070751 0.026518
0.597571 -0.058637 0.055432
0.559409 0.014220 0.005320
0.544088 0.092276 0.053877
0.624031 -0.021548 0.039276
0.621359 -0.031513 0.028477
0.600438 0.000288 0.016377
0.589617 0.025297 0.084625
0.617971 -0.000364 0.062129
0.564137 0.047354 0.007669
0.618225 -0.064921 0.023651
0.597548 0.075934 0.065126
0.612078 0.042892 0.067864
0.551787 -0.015900 0.062258
0.565309 0.067421 0.082177
0.607088 0.020424 0.025494
0.603362 -0.068784 0.024491
0.619955 0.013607 0.057594
0.528499 0.036531 0.047498
0.607077 0.062070 0.063425
0.555792 -0.037621 0.037366
0.580250 0.048164 0.010875
0.533415 0.043887 0.064994
0.562876 0.030539 0.085506
0.598519 -0.028513 0.069603
0.536119 0.077228 0.056694
0.587877 -0.009949 0.008797
0.600199 0.075744 0.055426
0.623173 -0.042148 0.054872
0.579548 -0.041140 0.062637
0.533246 0.043721 0.024554
0.603351 -0.056606 0.016957
0.532594 0.060983 0.032726
0.614896 0.012751 0.034446
0.537961 0.057325 0.022146
0.552824 0.079918 0.020396
0.597479 0.006541 0.079359
0.549065 0.049284 0.011093
0.579290 0.063289 0.014421
0.535135 0.027808 0.065263
0.608942 -0.049897 0.060178
0.559573 0.090995 0.069010
0.574084 -0.058194 0.031138
0.593321 -0.031851 0.011541
0.567235 -0.022190 0.007920
0.613334 0.025621 0.070546
0.590900 0.079377 0.034459
0.613293 -0.004617 0.067399
0.611387 -0.010788 0.023904
0.555754 0.051517 0.083000
0.577889 -0.060760 0.027299
0.619003 -0.012372 0.033448
0.533871 0.005536 0.045132
0.600389 0.031832 0.021078
0.594869 -0.009831 0.012374
0.537402 -0.005463 0.030894
0.593533 -0.056723 0.056009
0.584881 -0.015259 0.075262
0.554114 -0.035813 0.033492
0.545518 -0.016743 0.051418
0.601817 0.070269 0.043171
0.620174 0.014751 0.055295
0.580155 -0.050597 0.016296
0.616045 -0.023427 0.025573
0.549644 0.043799 0.009687
0.545773 -0.003344 0.064258
0.597691 0.032348 0.018880
0.571101 -0.046450 0.017119
0.529148 0.052115 0.044677
0.560738 0.082137 0.020302
0.534687 0.059345 0.027634
0.566586 -0.005306 0.005393
0.589642 -0.005560 0.009683
0.542111 -0.016286 0.036358
0.544848 0.012004 0.071922
0.571815 0.098052 0.048133
0.578568 -0.026868 0.070273
0.544542 0.091512 0.040674
0.596271 -0.002987 0.077269
0.585544 -0.027567 0.070786
0.531459 0.067023 0.043144
0.560940 -0.002422 0.005688
0.616617 0.030490 0.045813
0.530435 0.060986 0.048630
0.545116 0.044056 0.011985
0.620744 -0.038268 0.025474
0.539980 0.084326 0.058635
0.610296 -0.027000 0.066041
0.530274 0.057612 0.051452
0.560404 -0.033746 0.056214
0.594982 0.058583 0.079695
0.601683 -0.066558 0.022555
0.593675 -0.059508 0.018589
0.551487 -0.018913 0.059602
0.535870 0.024674 0.065532
0.580867 0.068262 0.081186
0.589142 -0.009262 0.076810
0.576548 -0.010219 0.005883
0.580083 0.045171 0.086779
0.558531 0.027795 0.005652
0.608710 -0.019057 0.020034
0.612956 0.031213 0.070214
0.620380 -0.000890 0.056796
0.576946 0.083296 0.024912
0.533371 0.007538 0.030867
0.606962 0.050843 0.072493
0.592705 0.083564 0.045840
0.538335 -0.003232 0.049542
0.599704 0.048813 0.024985
0.536694 0.079671 0.055703
0.628855 -0.062177 0.043907
0.619826 0.013030 0.046662
0.596088 0.035385 0.018230
0.613371 -0.007610 0.026908
0.583420 -0.044163 0.061984
0.547906 0.084472 0.026642
0.558526 0.009692 0.079635
0.592887 0.024321 0.083765
0.532198 0.030353 0.060356
0.563120 -0.023818 0.066078
0.623822 -0.030127 0.052929
0.533370 0.013084 0.026570
0.594744 0.041093 0.018437
0.627938 -0.034075 0.042724
0.624834 -0.024474 0.047738
0.602083 -0.040238 0.015012
0.577839 -0.056100 0.047070
0.530918 0.061263 0.038910
0.585994 -0.062610 0.044433
0.569285 0.089476 0.070596
0.585751 0.037546 0.011648
0.586128 0.053242 0.084365
0.529031 0.050665 0.043097
0.617166 0.023089 0.064437
0.569753 0.098412 0.053904
0.601612 0.051390 0.028143
