ply
format ascii 1.0
element vertex 1024
property float x
property float y
property float z
end_header
0.597383 0.026917 0.031490
0.549926 0.001628 0.077791
0.590523 -0.044525 0.052073
0.596744 0.035050 0.070321
0.570388 -0.021831 0.005727
0.572397 0.084564 0.034117
0.520994 0.046447 0.026088
0.556609 0.046669 0.084833
0.539973 -0.046506 0.046099
0.552581 0.093769 0.059738
0.580112 -0.045281 0.008807
0.596754 -0.075534 0.030312
0.528054 0.074930 0.050266
0.552929 -0.022466 0.001567
0.565480 -0.056345 0.052883
0.567211 -0.002018 0.077138
0.577144 0.033861 0.082857
0.517853 -0.009390 0.027645
0.603794 0.012846 0.045827
0.515765 0.036119 0.035001
0.564873 0.042310 0.085334
0.566127 -0.065539 0.046386
0.534172 0.008153 0.004361
0.520778 0.054437 0.052292
0.537696 0.081860 0.031353
0.571879 -0.080819 0.020790
0.567374 -0.078762 0.027169
0.517308 0.045218 0.039890
0.594336 0.005062 0.068790
0.583664 -0.078103 0.036063
0.546014 0.002999 0.001865
0.599410 -0.031953 0.042340
0.562490 -0.076873 0.019454
0.580378 -0.018994 0.010620
0.527742 -0.020972 0.052385
0.600156 0.034265 0.038490
0.570578 -0.019970 0.069864
0.576452 -0.039233 0.007658
0.532668 0.028087 0.007271
0.598608 -0.040090 0.025409
0.543233 0.019507 0.080541
0.601789 0.012047 0.038098
0.564656 0.023527 0.084250
0.539138 -0.052653 0.016185
0.539609 -0.000010 0.073642
0.524354 0.005457 0.062434
0.576977 0.045755 0.014832
0.596102 0.033936 0.030815
0.592427 -0.026399 0.057104
0.543296 0.071301 0.018059
0.557046 -0.062906 0.044551
0.556905 -0.004191 0.076708
0.539505 -0.022159 0.063357
0.600910 0.046963 0.054996
0.558926 -0.004818 0.076549
0.525904 -0.028284 0.015708
0.587633 0.067832 0.034462
0.536753 0.030832 0.079020
0.597987 -0.005128 0.060367
0.590903 0.066152 0.038939
0.568120 -0.059990 0.006442
0.596380 -0.076631 0.024538
0.597317 0.052118 0.064677
0.558199 0.047816 0.084860
0.540950 0.014085 0.078419
0.586489 -0.003555 0.015888
0.540871 0.088396 0.059589
0.572033 -0.061863 0.006599
0.518653 0.049682 0.038557
0.597257 0.046784 0.037114
0.518419 0.015304 0.055649
0.533589 -0.011911 0.064365
0.525542 0.058615 0.027480
0.533081 -0.004693 0.004335
0.538385 -0.035601 0.007347
0.568954 0.060092 0.013986
0.600207 -0.036299 0.034233
0.600413 0.048024 0.057936
0.546929 0.070270 0.076883
0.532284 0.066316 0.023514
0.529876 0.035642 0.010559
0.570073 -0.080302 0.020483
0.540801 -0.027265 0.061320
0.587670 -0.039786 0.055913
0.536313 0.086812 0.047878
0.583878 -0.081087 0.029614
0.547592 0.035945 0.083482
0.604069 0.021032 0.051058
0.580442 -0.054914 0.052760
0.600828 -0.005434 0.035697
0.558647 0.095593 0.049003
0.598728 -0.016053 0.030961
0.515700 0.007940 0.042291
0.568612 -0.017910 0.070954
0.546163 0.028679 0.004273
0.529687 0.067571 0.027946
0.547146 0.094001 0.049226
0.523013 0.014846 0.012201
0.592786 0.015611 0.023870
0.546268 0.056815 0.080495
0.542781 0.040373 0.081640
0.525680 0.057958 0.026679
0.586200 -0.019542 0.064881
0.553513 -0.062852 0.041900
0.583543 -0.022098 0.012401
0.597965 -0.074392 0.022668
0.566611 0.087585 0.066896
0.576390 -0.047381 0.007305
0.573592 0.060723 0.016556
0.561750 0.095135 0.048647
0.547203 0.040232 0.083161
0.593550 0.048364 0.031292
0.584073 0.038738 0.080029
0.586079 -0.060142 0.048351
0.533580 -0.039455 0.044453
0.601421 0.043308 0.048769
0.534239 -0.010869 0.065449
0.549005 0.004341 0.078451
0.557458 -0.030512 0.065669
0.550647 -0.013791 0.001187
0.601504 -0.007911 0.038275
0.563182 -0.065938 0.044919
0.525421 0.014055 0.066860
0.555120 -0.030620 0.002359
0.542129 -0.059359 0.020291
0.593118 0.045371 0.029565
0.577872 -0.038898 0.060577
0.531349 -0.041727 0.019689
0.535719 -0.026136 0.005872
0.577884 0.085204 0.043185
0.590245 0.072426 0.048577
0.546724 -0.009296 0.072873
0.518574 0.025182 0.057990
0.583957 -0.070887 0.042852
0.559916 -0.057398 0.050702
0.561192 0.033583 0.085602
0.535651 -0.034760 0.052097
0.539964 0.027494 0.004869
0.533525 0.070792 0.067077
0.529726 0.049747 0.072418
0.569959 0.063002 0.080663
0.575241 -0.038985 0.061174
0.559153 0.093196 0.040309
0.600724 -0.019547 0.039273
0.578435 0.068607 0.023855
0.565391 0.016021 0.082660
0.548656 0.060737 0.080426
0.582992 0.078731 0.040126
0.561038 0.092274 0.062713
0.543645 -0.005511 0.001801
0.589832 -0.047989 0.051297
0.560884 0.086158 0.029273
0.592563 0.068841 0.056170
0.558200 0.088008 0.069017
0.557064 0.016800 0.082919
0.545599 0.053381 0.080901
0.565853 0.017020 0.005023
0.577797 0.082736 0.037858
0.560064 -0.051509 0.005492
0.519421 0.049222 0.033397
0.528653 -0.037796 0.026441
0.578465 -0.059067 0.051177
0.592783 -0.029574 0.055487
0.517734 -0.001247 0.043184
0.588939 -0.064207 0.045117
0.532586 -0.016053 0.061260
0.597620 0.050035 0.039922
0.565771 -0.025121 0.068310
0.516014 0.003288 0.025533
0.552887 -0.000963 0.001383
0.564275 -0.014103 0.072851
0.552844 0.087268 0.029868
0.575932 -0.042404 0.059536
0.535338 -0.015588 0.004218
0.599795 0.050696 0.056895
0.529960 -0.034712 0.042790
0.549236 -0.015292 0.001299
0.538967 0.009879 0.003316
0.569660 0.092261 0.048638
0.579821 0.066643 0.023912
0.542573 -0.045419 0.008791
0.575574 0.062711 0.079251
0.593810 0.056890 0.067878
0.593145 -0.027034 0.020664
0.570066 0.012900 0.006532
0.600677 0.007624 0.061411
0.568958 0.077512 0.023469
0.527399 0.016680 0.069682
0.536842 -0.019358 0.004161
0.514971 0.015074 0.029790
0.565369 0.088438 0.066446
0.572322 -0.040209 0.061130
0.598153 0.052908 0.044136
0.567350 -0.074025 0.037764
0.560376 0.015227 0.003397
0.528921 0.060739 0.067244
0.531340 0.060669 0.020952
0.585736 0.004955 0.074647
0.555010 0.069809 0.015161
0.591624 0.070671 0.054899
0.577809 0.078151 0.031510
0.525369 0.023468 0.011514
0.514452 0.015507 0.038402
0.535828 0.048390 0.077331
0.600404 0.003105 0.060295
0.573678 -0.029014 0.006905
0.518986 0.034797 0.058369
0.554963 -0.071261 0.017468
0.591518 -0.079808 0.025842
0.552029 -0.014729 0.071973
0.560705 -0.062265 0.047152
0.590441 0.051276 0.028122
0.554446 -0.056147 0.049123
0.583805 0.008587 0.076564
0.600455 0.047669 0.058246
0.531663 0.073972 0.030668
0.587589 -0.067181 0.044143
0.524429 -0.014862 0.050904
0.579205 0.081705 0.064629
0.575874 -0.044503 0.007245
0.552859 -0.062303 0.041968
0.593980 0.065178 0.046824
0.537612 -0.039573 0.009286
0.544969 0.085146 0.029556
0.597904 -0.024203 0.028574
0.568107 -0.033479 0.004727
0.518664 -0.011583 0.022575
0.592458 0.005348 0.022649
0.518960 0.010982 0.055158
0.597418 0.014992 0.030040
0.592387 -0.045305 0.050182
0.574388 0.089058 0.046846
0.591690 0.059787 0.069147
0.514877 0.019821 0.030797
0.554328 -0.040397 0.059833
0.578919 -0.066454 0.007698
0.556658 0.068485 0.079848
0.564448 -0.075031 0.033557
0.514541 0.015818 0.033066
0.568259 -0.042067 0.060632
0.553581 0.043335 0.006643
0.579785 0.082745 0.061781
0.517593 0.012012 0.052216
0.571813 0.007682 0.007084
0.585269 0.032109 0.079522
0.599750 -0.028111 0.033513
0.579602 -0.000194 0.011002
0.542876 0.001647 0.002139
0.552204 -0.017405 0.001275
0.556361 -0.048145 0.005249
0.562878 -0.070156 0.011624
0.596756 0.022088 0.069793
0.601119 -0.068113 0.028737
0.537031 0.071068 0.070588
0.563952 0.090481 0.064323
0.520502 0.037850 0.061151
0.576080 0.073687 0.025380
0.594048 0.061723 0.041370
0.598063 -0.073362 0.031463
0.557482 0.039543 0.006204
0.592493 0.037052 0.074677
0.536423 -0.050697 0.020178
0.547955 0.075943 0.019566
0.520911 0.057759 0.042897
0.516251 -0.001090 0.031175
0.567957 0.037063 0.085131
0.581067 -0.012479 0.011370
0.603132 0.019008 0.057949
0.595768 0.024954 0.028776
0.576434 -0.051200 0.007151
0.544374 -0.060779 0.031450
0.589738 0.066853 0.037260
0.593283 0.066189 0.045953
0.525685 0.039167 0.069353
0.539385 0.067902 0.018257
0.570920 -0.017517 0.070784
0.598837 -0.065254 0.036569
0.601303 -0.056300 0.026089
0.531649 -0.006563 0.004961
0.599642 -0.023304 0.045944
0.589125 0.072481 0.043971
0.531906 0.015029 0.005804
0.566233 0.081705 0.026092
0.586917 -0.053500 0.010915
0.573706 0.032395 0.083804
0.520376 0.009639 0.057551
0.585922 0.033335 0.018948
0.567551 0.003912 0.004883
0.563467 0.090373 0.036699
0.596070 0.046756 0.034738
0.518384 0.041540 0.028698
0.557843 -0.072330 0.030725
0.589846 -0.008344 0.067270
0.537523 -0.009020 0.068710
0.551921 0.089642 0.033372
0.589874 0.041831 0.076413
0.541122 -0.022894 0.003367
0.587134 0.070113 0.068119
0.531710 0.065165 0.068404
0.547633 -0.058204 0.041655
0.594692 -0.053411 0.045284
0.599569 -0.029837 0.042445
0.529691 -0.038511 0.019303
0.536027 -0.046173 0.039945
0.585474 -0.064583 0.046340
0.601363 -0.057803 0.025641
0.574588 0.019708 0.081980
0.597513 -0.065415 0.016093
0.599891 -0.060887 0.020518
0.568484 0.085939 0.067918
0.548933 0.072025 0.076922
0.561661 0.094482 0.045109
0.590649 0.052986 0.029096
0.583226 0.075800 0.067677
0.553081 0.051397 0.008498
0.540931 0.069803 0.074137
0.531859 0.072378 0.063603
0.601664 0.026151 0.039958
0.577130 0.067251 0.021883
0.569602 -0.074362 0.012409
0.598394 0.019783 0.067461
0.514542 0.013326 0.035497
0.559159 0.093624 0.041317
0.601149 0.023897 0.038156
0.592481 -0.034190 0.018560
0.520828 0.052182 0.055002
0.526630 0.009527 0.066934
0.580019 -0.043428 0.058026
0.532915 0.082725 0.043913
0.532092 0.058455 0.018900
0.573492 -0.032619 0.006714
0.527347 0.037673 0.071390
0.530544 -0.039766 0.034377
0.566913 -0.023632 0.068844
0.595988 -0.061335 0.041444
0.525333 0.035251 0.069025
0.556557 -0.061308 0.009306
0.529041 0.043255 0.013864
0.519066 0.008959 0.054443
0.562475 0.093941 0.043936
0.599639 -0.051718 0.038363
0.538835 -0.031349 0.057444
0.517136 0.044622 0.041833
0.542955 0.012849 0.078932
0.597511 -0.047607 0.043207
0.590563 -0.047539 0.014169
0.556406 0.011488 0.002480
0.575904 0.010266 0.009504
0.594362 -0.051736 0.046141
0.548149 0.022307 0.003371
0.558166 -0.006267 0.001729
0.515886 0.029838 0.049965
0.572368 0.089482 0.058143
0.534374 -0.047954 0.026355
0.564985 -0.021642 0.069789
0.526561 0.049762 0.019635
0.557974 0.084092 0.026154
0.566704 -0.075903 0.034034
0.600416 -0.043238 0.029752
0.523007 0.015889 0.012440
0.569507 0.088144 0.064187
0.528707 0.063764 0.064980
0.545566 0.042706 0.006952
0.576301 -0.031398 0.007917
0.548271 0.000346 0.076983
0.551988 0.084317 0.026366
0.587121 0.032836 0.019948
0.584095 -0.048738 0.054218
0.518716 0.014929 0.018572
0.519401 0.048644 0.032698
0.567344 0.022921 0.083887
0.521973 0.061064 0.045041
0.602690 0.036469 0.049755
0.572716 0.088705 0.059590
0.525594 0.019188 0.068189
0.579387 0.067902 0.024284
0.547646 0.043853 0.006955
0.578058 -0.045946 0.057491
0.590148 -0.047659 0.013870
0.598636 -0.028416 0.029420
0.540046 0.088081 0.058732
0.568970 -0.075237 0.036912
0.519649 0.022225 0.059915
0.562326 -0.036464 0.063292
0.552595 -0.013243 0.072702
0.519535 -0.015662 0.029742
0.557124 -0.016801 0.071751
0.536531 0.043962 0.078417
0.533104 0.020271 0.075268
0.592611 -0.076913 0.033819
0.589566 0.069377 0.039976
0.568163 0.086395 0.033280
0.568006 -0.050034 0.056685
0.536266 0.005580 0.003613
0.595607 -0.034286 0.022215
0.529044 0.059522 0.068074
0.516230 0.036927 0.048068
0.529720 -0.037927 0.035402
0.539064 0.088714 0.044305
0.540449 0.089313 0.042593
0.577564 0.084687 0.061230
0.588667 0.074097 0.059569
0.593493 0.008315 0.024128
0.535650 0.060923 0.074105
0.544378 0.013974 0.002840
0.549913 -0.030538 0.002780
0.602377 -0.005215 0.041981
0.601638 0.017997 0.061819
0.599654 -0.035903 0.030129
0.579649 -0.039285 0.059880
0.541113 0.087540 0.036647
0.602301 0.039892 0.051733
0.515367 0.006807 0.028821
0.533811 0.081259 0.057816
0.537005 0.082440 0.033075
0.556038 -0.019360 0.070578
0.559374 -0.056890 0.050870
0.518201 -0.002950 0.018502
0.552808 0.063281 0.080878
0.592752 -0.033040 0.054211
0.596507 0.021675 0.070037
0.558309 0.083296 0.025331
0.528893 0.053172 0.019044
0.543650 0.084589 0.029644
0.564785 0.088629 0.034562
0.580494 -0.028023 0.064197
0.520374 0.017036 0.060190
0.581120 0.039605 0.016310
0.519064 0.027306 0.059145
0.551321 0.013341 0.081409
0.548964 0.010496 0.002196
0.601000 -0.011274 0.050061
0.516196 0.029124 0.028036
0.575141 -0.054679 0.053926
0.566559 -0.038541 0.062352
0.572273 -0.064059 0.048593
0.523094 -0.016111 0.013195
0.568219 0.002275 0.078443
0.553736 0.055234 0.082984
0.542856 -0.005043 0.073181
0.549558 -0.050689 0.007687
0.576169 -0.041211 0.007486
0.560219 0.005833 0.080121
0.526043 0.019217 0.068704
0.573084 0.017800 0.008560
0.595961 -0.072807 0.016719
0.549102 0.027465 0.083539
0.600615 0.040963 0.042719
0.539717 0.086123 0.061608
0.521547 0.006156 0.058195
0.601356 0.040248 0.045088
0.562990 0.052978 0.009946
0.569254 -0.011221 0.005352
0.566320 0.045621 0.009210
0.560764 0.057871 0.082993
0.517191 0.044558 0.044140
0.560892 0.000915 0.002533
0.599452 -0.029314 0.031847
0.551489 -0.035787 0.061550
0.514396 0.016291 0.035254
0.597483 0.045275 0.036839
0.566247 0.090553 0.062756
0.543007 0.091069 0.056716
0.529430 0.070363 0.030869
0.538872 0.039753 0.080065
0.599950 0.045954 0.062185
0.520708 0.001815 0.013223
0.522919 0.060806 0.053280
0.568043 -0.015152 0.072117
0.517267 0.033530 0.026677
0.514943 0.011356 0.040092
0.602594 0.033079 0.058524
0.571794 0.081426 0.029336
0.551457 0.050776 0.083238
0.558971 -0.046550 0.004595
0.596718 -0.047498 0.044463
0.603981 0.015137 0.047498
0.547536 0.066855 0.078321
0.573727 -0.080854 0.027882
0.544651 0.086432 0.031524
0.580228 -0.043916 0.057752
0.596358 0.059194 0.045729
0.552917 0.016364 0.082371
0.577553 -0.063217 0.007134
0.567068 -0.059474 0.006420
0.585907 0.009519 0.075863
0.573899 0.025823 0.083148
0.595439 0.012252 0.069653
0.518303 0.002179 0.048302
0.523843 -0.021149 0.043478
0.545298 0.001514 0.076521
0.599154 0.008566 0.064165
0.547596 -0.048998 0.050747
0.584889 0.031613 0.079693
0.601510 -0.057495 0.032061
0.568909 -0.026475 0.005048
0.579585 0.071204 0.074186
0.581225 0.030024 0.081246
0.577671 -0.022021 0.009014
0.571957 0.081458 0.029510
0.519763 0.052667 0.037350
0.591535 0.037628 0.075450
0.530834 -0.003085 0.066248
0.591646 -0.035106 0.054576
0.536233 0.015906 0.004433
0.588333 -0.047409 0.052519
0.539794 -0.014156 0.067596
0.544017 0.021666 0.003600
0.577556 -0.076487 0.012768
0.526258 0.066696 0.057494
0.521091 -0.015635 0.016749
0.564279 -0.026825 0.067664
0.563233 0.087172 0.068798
0.547235 -0.007564 0.073740
0.564448 0.086878 0.068693
0.548042 -0.031586 0.062581
0.596907 -0.035697 0.023744
0.524244 -0.014834 0.011262
0.598007 -0.037202 0.044877
0.597933 0.053092 0.043530
0.584872 0.045228 0.020396
0.534016 0.081944 0.057171
0.574954 0.048769 0.014222
0.535638 -0.049156 0.031624
0.534132 0.074084 0.027280
0.556377 0.060471 0.011330
0.592047 -0.023541 0.058631
0.553222 -0.031609 0.002576
0.599082 -0.052123 0.021924
0.540129 0.064382 0.075765
0.537249 -0.046908 0.041418
0.588654 0.061573 0.071731
0.549780 -0.067100 0.017862
0.592060 -0.038356 0.017287
0.599007 0.047649 0.063767
0.547586 0.071288 0.076744
0.586591 0.078048 0.053164
0.602363 0.038109 0.056934
0.538397 0.005532 0.003141
0.599938 -0.060629 0.036277
0.572433 -0.020491 0.006647
0.517993 0.044645 0.033365
0.596875 0.024965 0.069914
0.566886 -0.079193 0.023629
0.518606 0.049219 0.047630
0.530038 0.022606 0.073145
0.588118 -0.036924 0.014182
0.555585 0.020473 0.003313
0.524919 -0.028225 0.035820
0.575145 -0.052380 0.006747
0.596597 -0.032031 0.024291
0.529129 -0.005028 0.063495
0.556773 0.044683 0.085062
0.558176 0.055817 0.083408
0.601128 -0.053305 0.033584
0.566870 -0.068972 0.009700
0.554665 0.036683 0.005477
0.573397 0.086999 0.062354
0.593051 0.065097 0.043108
0.543519 0.004758 0.002240
0.548428 -0.036423 0.004135
0.591428 0.048664 0.028428
0.516767 0.001161 0.022336
0.568345 -0.030161 0.004799
0.543198 -0.020014 0.066526
0.539447 0.058565 0.077087
0.538487 -0.045672 0.011623
0.595401 0.061881 0.046443
0.599441 -0.070773 0.021336
0.603675 0.006291 0.051431
0.573045 -0.057871 0.006323
0.551276 0.092335 0.062454
0.580072 0.084805 0.051776
0.582447 0.061452 0.023613
0.561236 0.009242 0.003100
0.576205 0.035027 0.012478
0.563951 0.065881 0.014562
0.529485 0.068144 0.028747
0.546670 0.035427 0.005314
0.596570 0.038043 0.070391
0.563545 0.087319 0.068536
0.523295 0.044237 0.065048
0.542881 0.090669 0.057735
0.596080 0.061504 0.050075
0.590292 0.014697 0.020975
0.584374 0.078784 0.043531
0.592783 0.058128 0.035257
0.529699 0.002124 0.067463
0.592601 -0.023418 0.058113
0.556617 -0.042188 0.059441
0.531402 -0.030115 0.050601
0.528289 0.050278 0.018010
0.515434 0.035911 0.039204
0.595763 -0.013367 0.059062
0.595823 0.035375 0.030713
0.568801 -0.069849 0.043291
0.522026 0.011729 0.012692
0.567303 -0.066002 0.046333
0.584456 0.022810 0.016370
0.527281 0.058470 0.024559
0.561127 0.023666 0.004418
0.527411 0.074189 0.047748
0.575096 0.047987 0.082524
0.544101 0.009035 0.002473
0.552099 0.068947 0.078953
0.547198 -0.046014 0.006987
0.598890 -0.073240 0.029161
0.519383 0.016612 0.058149
0.577290 -0.029640 0.008431
0.600407 -0.005815 0.055668
0.574441 -0.064445 0.048398
0.580301 0.081139 0.039211
0.577378 0.077756 0.030575
0.584690 -0.027333 0.012749
0.515623 0.005937 0.039430
0.532463 -0.027054 0.054399
0.590274 -0.008759 0.066768
0.565345 -0.020645 0.003735
0.596245 0.061192 0.050533
0.540680 0.034773 0.081136
0.586693 -0.000995 0.072201
0.596897 -0.043511 0.045246
0.580575 0.045907 0.017186
0.562270 0.092403 0.061914
0.600477 -0.019978 0.044445
0.528661 -0.029536 0.046309
0.532951 -0.044021 0.034118
0.541538 -0.054387 0.014481
0.524572 0.020452 0.011703
0.588290 -0.034713 0.057472
0.593687 0.049347 0.071624
0.601474 0.004165 0.058552
0.584788 -0.062845 0.008787
0.581643 0.042863 0.080809
0.585248 0.053713 0.077140
0.540983 -0.057713 0.028263
0.525632 0.004737 0.008307
0.591880 0.042681 0.027102
0.594717 0.040810 0.030451
0.582327 0.081139 0.043688
0.547876 0.005745 0.078595
0.527582 0.030178 0.071449
0.569955 0.033840 0.084712
0.523600 0.024061 0.066412
0.598010 0.016982 0.031145
0.526011 -0.011018 0.056162
0.593298 -0.056575 0.045514
0.518000 0.011130 0.052915
0.581133 -0.070194 0.043809
0.537059 -0.048780 0.037865
0.576451 -0.070670 0.008936
0.582922 0.027907 0.080390
0.568538 0.086617 0.033902
0.541666 -0.036008 0.006038
0.522889 0.015613 0.063940
0.538083 0.002427 0.073723
0.560054 0.082454 0.073395
0.596150 -0.012598 0.026451
0.568851 0.016655 0.006235
0.600000 -0.022600 0.044888
0.526538 0.072507 0.046423
0.526199 0.021425 0.069213
0.548932 0.093232 0.041852
0.532426 0.065081 0.069310
0.538269 0.045344 0.009484
0.591618 -0.077459 0.033804
0.539719 0.068999 0.018663
0.538084 -0.052512 0.018266
0.547876 0.082051 0.024851
0.592978 -0.029778 0.055195
0.583169 0.039978 0.017881
0.598590 -0.012198 0.055386
0.588710 0.062264 0.031567
0.528957 0.076848 0.043040
0.585451 0.020184 0.078287
0.535724 0.073038 0.068121
0.530156 -0.039309 0.019156
0.575303 0.059605 0.080164
0.565451 0.003099 0.079008
0.520236 -0.008415 0.045547
0.560356 -0.009967 0.074592
0.567515 0.092165 0.058099
0.557797 -0.007016 0.075695
0.552238 -0.062608 0.040994
0.566022 0.082777 0.072054
0.586087 -0.064654 0.046082
0.579012 -0.022409 0.066956
0.520395 -0.005481 0.014348
0.517991 -0.000305 0.045157
0.549387 0.022246 0.082885
0.594231 0.065879 0.054120
0.585317 0.000613 0.073462
0.600387 -0.046816 0.027367
0.566947 0.011908 0.081465
0.597210 -0.005835 0.061097
0.542952 0.091958 0.050905
0.569008 -0.012317 0.073092
0.583353 0.078753 0.063384
0.550973 0.093922 0.058347
0.527822 0.014616 0.007909
0.519551 0.017010 0.058609
0.566083 0.030867 0.085109
0.561928 0.041586 0.085582
0.603457 0.001911 0.048214
0.574328 -0.070041 0.008781
0.528235 -0.025722 0.010797
0.546112 0.093318 0.054042
0.551086 0.055132 0.082397
0.529706 0.072922 0.059145
0.555881 -0.006119 0.001419
0.578892 -0.010373 0.010165
0.547202 -0.024826 0.065870
0.588962 -0.040523 0.054752
0.535675 -0.033723 0.052949
0.571194 -0.078363 0.015747
0.557001 0.095689 0.051208
0.581170 -0.038019 0.059877
0.600400 0.048725 0.056242
0.566666 -0.013619 0.072867
0.593083 0.020471 0.024687
0.557012 -0.066785 0.040028
0.580130 0.072390 0.028396
0.560375 -0.012345 0.002136
0.537313 0.052758 0.012548
0.589511 0.074083 0.051675
0.598838 -0.015541 0.052893
0.532187 -0.016430 0.060668
0.579703 0.077706 0.033343
0.556780 0.081053 0.074263
0.560876 -0.052491 0.054323
0.599275 -0.061538 0.037222
0.521158 0.039124 0.021121
0.533104 0.057833 0.017648
0.537122 0.028571 0.005689
0.596372 -0.056354 0.042588
0.562530 -0.022987 0.002878
0.564125 0.088823 0.034506
0.547020 -0.051195 0.048424
0.597036 0.053787 0.041331
0.515091 0.010519 0.040495
0.573271 0.027217 0.083473
0.539312 0.042433 0.008247
0.554385 -0.025418 0.067605
0.525463 -0.022063 0.046948
0.592707 0.067503 0.059363
0.587974 -0.052243 0.050837
0.530881 -0.038366 0.015757
0.516802 0.019845 0.023964
0.575470 0.053861 0.015696
0.590329 0.064172 0.068213
0.553146 -0.006123 0.075624
0.541440 -0.043586 0.050425
0.588187 0.055908 0.074452
0.594918 -0.061936 0.013820
0.600228 -0.043996 0.028279
0.598949 -0.039447 0.026425
0.566572 0.003286 0.078962
0.524936 0.045148 0.067528
0.601314 -0.015196 0.041721
0.535378 0.062184 0.018049
0.566021 -0.049843 0.005083
0.555738 -0.060774 0.009352
0.527919 -0.021831 0.009654
0.518876 0.035921 0.057887
0.573803 0.073017 0.076013
0.536850 -0.048855 0.015973
0.552317 0.042992 0.006552
0.528789 0.067469 0.062430
0.584121 0.049790 0.020924
0.515696 0.034267 0.046847
0.591313 0.027104 0.023387
0.542915 -0.045869 0.008785
0.540868 -0.034614 0.056762
0.549427 0.082883 0.025280
0.569255 -0.036390 0.063173
0.523781 0.049630 0.064075
0.596806 0.047028 0.036280
0.585567 -0.064894 0.008994
0.542538 0.090704 0.042803
0.595891 0.042078 0.032668
0.522459 -0.006526 0.052637
0.567036 0.001367 0.078289
0.577221 -0.068090 0.007948
0.514700 0.017280 0.031624
0.545822 0.043805 0.082379
0.592067 0.011327 0.022646
0.553646 -0.069975 0.028998
0.528807 -0.032354 0.043105
0.597211 0.035575 0.032988
0.580849 -0.080207 0.032726
0.589261 -0.006489 0.068494
0.534557 0.050431 0.013119
0.534225 -0.022326 0.005727
0.533797 -0.029035 0.054469
0.538202 0.031042 0.079855
0.582280 -0.072554 0.041829
0.569631 0.082656 0.029165
0.556625 0.056571 0.083112
0.536894 -0.044914 0.043486
0.541957 -0.031097 0.004681
0.532257 -0.044335 0.024697
0.555769 -0.036923 0.062140
0.601465 -0.065358 0.030081
0.560192 -0.072105 0.014254
0.592819 -0.013406 0.021905
0.598830 -0.019096 0.031153
0.516357 0.040892 0.039033
0.515276 0.016635 0.046103
0.594553 0.059242 0.039975
0.554369 -0.071836 0.021422
0.580452 0.084277 0.048726
0.540594 0.060836 0.014175
0.535353 -0.031133 0.007467
0.515756 0.014228 0.047147
0.572397 -0.028139 0.066321
0.579143 0.072723 0.027600
0.534864 0.051810 0.076074
0.568828 0.053150 0.083159
0.547041 -0.048604 0.007911
0.601658 -0.056857 0.028215
0.537829 -0.016204 0.003460
0.567973 -0.064023 0.007426
0.562739 0.041611 0.085553
0.525808 -0.024156 0.045569
0.555126 -0.052828 0.052054
0.519739 0.035256 0.059981
0.543657 -0.009510 0.001789
0.561368 -0.072256 0.035710
0.586939 0.060410 0.028024
0.548100 -0.007624 0.073971
0.592900 0.000420 0.068496
0.603072 0.034393 0.051180
0.588414 0.011876 0.018809
0.552634 0.095125 0.054069
0.541458 0.083014 0.066730
0.592403 -0.008566 0.065100
0.596011 0.060582 0.046804
0.585992 0.013522 0.076777
0.516843 0.012341 0.022170
0.567264 0.022270 0.083777
0.543557 0.038973 0.082043
0.575316 0.088390 0.054697
0.584870 0.078622 0.044619
0.552618 -0.038173 0.003716
0.533035 0.016000 0.074431
0.527039 -0.029269 0.042472
0.602287 -0.007264 0.047017
0.593288 -0.070606 0.013098
0.519086 -0.013809 0.031021
0.556376 0.000823 0.078428
0.574425 0.016331 0.009187
0.593031 -0.033110 0.053877
0.601312 0.033695 0.041351
0.527726 0.054129 0.020970
0.565474 -0.047119 0.058093
0.595721 0.062662 0.052501
0.560994 -0.043863 0.059379
0.561100 0.035656 0.006069
0.600173 -0.006113 0.055997
0.545741 0.029703 0.082846
0.521217 0.020112 0.015760
0.533660 -0.014616 0.063006
0.575072 -0.035085 0.062900
0.580071 -0.067496 0.045871
0.603007 0.026059 0.044449
0.526780 0.043038 0.015777
0.550109 -0.037217 0.060214
0.531175 0.070489 0.028134
0.593007 -0.072872 0.037831
0.555687 0.010662 0.002339
0.579216 0.077505 0.069955
0.526688 -0.015946 0.009117
0.569810 0.055109 0.012843
0.598332 0.053107 0.060799
0.583836 0.020908 0.015683
0.515901 0.028107 0.050344
0.532305 0.016751 0.074048
0.582488 -0.074278 0.040341
0.522648 -0.012133 0.012494
0.524908 0.017248 0.010711
0.544796 0.033401 0.005129
0.520127 -0.010234 0.016201
0.551724 0.026634 0.083968
0.565593 0.028013 0.084845
0.537627 0.079611 0.065533
0.560122 0.067129 0.014335
0.583698 0.006400 0.075986
0.589210 -0.067414 0.043335
0.531198 0.072462 0.029882
0.567872 -0.067027 0.045611
0.539371 0.014836 0.003638
0.542855 0.090660 0.057711
0.599124 -0.034112 0.028976
0.593742 -0.042645 0.017963
0.577985 -0.006867 0.009776
0.577941 0.014667 0.080037
0.599056 -0.013897 0.053452
0.550245 0.046361 0.007331
0.584161 -0.074542 0.011636
0.593221 0.064387 0.062671
0.601671 0.029192 0.062124
0.531422 -0.017499 0.059303
0.561596 0.060478 0.082346
0.588967 0.011071 0.019284
0.568976 -0.075777 0.013735
0.603147 -0.000204 0.049521
0.516871 0.039141 0.049846
0.599877 0.049221 0.059268
0.529198 -0.037732 0.032975
0.566454 0.044087 0.008959
0.524563 0.044234 0.067146
0.552785 0.024460 0.083860
0.575535 -0.038644 0.061259
0.532556 0.077088 0.060471
0.563152 -0.014158 0.002929
0.594931 0.064433 0.052759
0.595900 -0.055310 0.043420
0.554042 -0.047194 0.055527
0.520814 0.047018 0.026976
0.570522 -0.063275 0.006923
0.524039 0.063490 0.036112
0.596002 0.001517 0.026978
0.527699 0.059717 0.024866
0.546217 0.079404 0.022896
0.581760 -0.004752 0.072989
0.536137 0.050664 0.012337
0.568582 0.058849 0.013411
0.523342 0.028126 0.066355
0.581018 -0.060793 0.049678
0.559117 0.085582 0.071135
0.542817 -0.060702 0.023833
0.564734 -0.036815 0.003905
0.540629 -0.022474 0.003434
0.599989 0.011822 0.063710
0.584643 0.071151 0.033053
0.594163 -0.017629 0.058919
0.587351 -0.020213 0.015554
0.549413 0.046489 0.083235
0.545739 -0.063614 0.019500
0.595360 -0.023798 0.024192
0.516276 0.007938 0.045252
0.584097 0.023769 0.016192
0.570336 -0.015531 0.005794
0.516480 -0.002456 0.030147
0.564317 -0.064479 0.046691
0.565091 -0.023638 0.068968
0.527544 -0.035382 0.029393
0.524176 -0.016439 0.049109
0.594440 0.059658 0.040121
0.603367 0.001046 0.047278
0.548842 -0.053242 0.008904
0.589756 -0.033561 0.016052
0.535581 0.045280 0.010580
0.527995 -0.004257 0.062580
0.581355 0.024910 0.014305
0.540803 -0.047635 0.010850
0.520098 0.054530 0.047839
0.554364 0.080196 0.022139
0.525343 0.061880 0.030755
0.542848 -0.005602 0.001920
0.565758 -0.010223 0.003876
0.519600 -0.014304 0.034511
0.530559 0.010420 0.071134
0.570557 0.091860 0.049566
0.556354 -0.033562 0.063998
0.542000 0.090782 0.044506
0.578657 -0.013741 0.070507
0.563104 -0.035514 0.063775
0.524943 0.068868 0.046909
0.537870 -0.001797 0.002933
0.601919 0.017808 0.039080
0.523322 0.062726 0.052128
0.531395 0.046164 0.013327
0.591645 -0.048952 0.014667
0.537801 0.083236 0.062407
0.587031 -0.038976 0.056632
0.522798 0.059238 0.054762
0.536078 -0.036100 0.051456
0.588827 0.046754 0.076443
0.567567 -0.073155 0.012101
0.560661 -0.064537 0.009346
0.530345 -0.020212 0.056527
0.523514 0.024901 0.066376
0.576898 0.058635 0.079861
0.570492 -0.018613 0.070413
0.551752 -0.012216 0.001145
0.572414 0.035701 0.084222
0.541013 0.028294 0.004804
0.582882 -0.027580 0.011520
0.600609 0.017402 0.063726
0.600851 -0.014453 0.047886
0.570853 0.078145 0.025172
0.514898 0.011020 0.031239
0.598516 0.037565 0.067669
0.588173 0.074122 0.044413
0.519438 -0.001775 0.048705
0.586864 0.040279 0.021079
0.533478 0.079456 0.059564
0.596852 -0.075183 0.030856
0.601954 0.000041 0.038641
0.580283 0.028220 0.013986
0.590137 -0.017659 0.018518
0.557226 -0.050798 0.054326
0.542780 0.084291 0.029842
0.544211 0.005185 0.077309
0.580889 0.013194 0.078804
0.520498 0.031496 0.061912
0.541413 -0.027544 0.061534
0.598556 -0.043483 0.042088
0.515531 0.016775 0.027276
0.580024 0.034046 0.014641
0.600970 -0.047348 0.031323
0.600120 -0.037737 0.037142
0.572092 -0.046843 0.006020
0.548275 -0.060457 0.039405
0.522991 0.063614 0.042438
0.554844 -0.068095 0.035615
0.568490 0.082266 0.071662
0.569975 0.032638 0.008593
0.579592 0.042734 0.081668
0.519580 0.053241 0.046201
0.602744 0.009102 0.057120
0.569110 0.092160 0.055525
0.589479 0.042244 0.024169
