ply
format ascii 1.0
element vertex 1024
property float x
property float y
property float z
end_header
0.607740 0.033638 0.038416
0.557421 0.004925 0.079391
0.604925 -0.037703 0.060262
0.601562 0.042455 0.076606
0.588698 -0.017949 0.011121
0.577473 0.088712 0.036168
0.531148 0.045762 0.023167
0.559048 0.050528 0.085765
0.555897 -0.044564 0.048263
0.553882 0.096522 0.058890
0.600063 -0.040310 0.016097
0.616602 -0.068419 0.040409
0.532536 0.075266 0.047111
0.572020 -0.020311 0.004894
0.581157 -0.051814 0.058400
0.574913 0.002912 0.080956
0.580751 0.039676 0.086701
0.532941 -0.010079 0.026096
0.613583 0.020526 0.053863
0.525820 0.035169 0.031702
0.567549 0.046978 0.087403
0.583438 -0.061034 0.052323
0.550349 0.008452 0.004422
0.526962 0.054223 0.048886
0.543773 0.082692 0.029299
0.593683 -0.076218 0.028111
0.588255 -0.074466 0.033827
0.525909 0.044470 0.036452
0.602105 0.012349 0.075742
0.603190 -0.072095 0.044607
0.562830 0.004389 0.003546
0.613766 -0.024548 0.051287
0.584211 -0.073202 0.025521
0.597705 -0.014084 0.017098
0.540705 -0.020175 0.052207
0.608945 0.041354 0.045464
0.580777 -0.014785 0.074715
0.596037 -0.034659 0.014322
0.546686 0.028209 0.006496
0.615811 -0.033064 0.034650
0.548837 0.022144 0.080741
0.612632 0.019386 0.045977
0.569181 0.028241 0.086894
0.559334 -0.051364 0.018677
0.547890 0.002237 0.074074
0.533705 0.006014 0.060930
0.587922 0.050127 0.018817
0.605919 0.040490 0.037369
0.604532 -0.019381 0.064911
0.551914 0.072442 0.017123
0.574453 -0.059308 0.049317
0.564981 -0.000231 0.079348
0.551079 -0.020026 0.064558
0.606489 0.054397 0.061531
0.567056 -0.000668 0.079454
0.544096 -0.028367 0.015828
0.594010 0.073503 0.038888
0.541591 0.032774 0.078088
0.607683 0.002381 0.068151
0.596840 0.072229 0.043779
0.589847 -0.056130 0.012761
0.617047 -0.069662 0.034670
0.601270 0.059384 0.070536
0.560512 0.051819 0.085948
0.547339 0.016489 0.078531
0.601685 0.001966 0.022578
0.542818 0.090066 0.057491
0.593865 -0.057622 0.013451
0.526996 0.049013 0.035152
0.605110 0.053514 0.043352
0.527783 0.015118 0.053167
0.544174 -0.010363 0.064516
0.534360 0.058330 0.024716
0.550445 -0.004438 0.004670
0.558130 -0.034641 0.009279
0.578793 0.063623 0.016551
0.615954 -0.028961 0.043478
0.605537 0.055466 0.064353
0.548316 0.072945 0.075956
0.540812 0.066552 0.021356
0.542831 0.035533 0.009181
0.591890 -0.075879 0.027570
0.553076 -0.025027 0.062856
0.601199 -0.033178 0.063575
0.539909 0.087823 0.045369
0.604472 -0.075174 0.038329
0.551282 0.038976 0.083669
0.612462 0.028806 0.058827
0.595826 -0.048981 0.060048
0.613572 0.001847 0.044030
0.561038 0.098693 0.048918
0.613052 -0.009016 0.039412
0.527421 0.007262 0.039817
0.578512 -0.012898 0.075493
0.560338 0.030011 0.005142
0.537583 0.067646 0.025398
0.549791 0.096028 0.047794
0.537742 0.014219 0.010634
0.605172 0.021797 0.030655
0.548442 0.059564 0.079884
0.546353 0.042892 0.081117
0.534656 0.057673 0.023959
0.596791 -0.012986 0.071654
0.571285 -0.059640 0.046257
0.600896 -0.016839 0.019347
0.618641 -0.067322 0.032936
0.567422 0.091834 0.067889
0.596763 -0.042782 0.014222
0.583000 0.064740 0.019643
0.564190 0.098523 0.048956
0.550547 0.043199 0.083168
0.602023 0.054619 0.037076
0.587503 0.045127 0.084582
0.602418 -0.053742 0.056523
0.549140 -0.038181 0.045630
0.608098 0.050682 0.055530
0.544587 -0.009243 0.065637
0.556182 0.007551 0.079848
0.569293 -0.026600 0.069294
0.569022 -0.011900 0.003967
0.614147 -0.000502 0.046748
0.580747 -0.061739 0.050523
0.533428 0.014761 0.065179
0.574830 -0.028205 0.006204
0.562393 -0.057674 0.023326
0.602083 0.051565 0.035405
0.590859 -0.033124 0.066985
0.550209 -0.041153 0.020863
0.554816 -0.025501 0.007193
0.581714 0.090049 0.045809
0.594424 0.078606 0.053063
0.555861 -0.006351 0.074468
0.526746 0.025011 0.055196
0.601981 -0.064747 0.051150
0.576025 -0.053430 0.055593
0.564674 0.037951 0.087498
0.549813 -0.033159 0.053317
0.554247 0.028259 0.005017
0.536237 0.072002 0.064585
0.533740 0.050805 0.070087
0.571267 0.067960 0.082731
0.588194 -0.033447 0.067261
0.562833 0.096179 0.040430
0.614313 -0.012137 0.048011
0.586164 0.073192 0.027224
0.570788 0.020807 0.085643
0.550453 0.063691 0.079982
0.587730 0.084026 0.043599
0.562006 0.095891 0.062915
0.561272 -0.004306 0.003464
0.604654 -0.041232 0.059518
0.566550 0.089114 0.029913
0.596102 0.075410 0.060990
0.558811 0.091505 0.068960
0.562457 0.020802 0.084865
0.548044 0.056090 0.080315
0.580764 0.020279 0.008644
0.582512 0.087478 0.040592
0.581231 -0.048468 0.010572
0.528436 0.048523 0.030140
0.546351 -0.037358 0.027110
0.594447 -0.053332 0.058369
0.605373 -0.022539 0.063451
0.530158 -0.001672 0.041240
0.606016 -0.057582 0.053791
0.543944 -0.014643 0.061445
0.604824 0.056840 0.046079
0.576689 -0.020397 0.072753
0.530230 0.002323 0.023377
0.570042 0.001084 0.004027
0.573644 -0.009480 0.076729
0.558432 0.089474 0.029494
0.589391 -0.036818 0.065828
0.553683 -0.015071 0.005173
0.604812 0.058046 0.063161
0.545337 -0.033835 0.043392
0.567750 -0.013525 0.003954
0.555059 0.010601 0.003913
0.572269 0.096408 0.049998
0.587705 0.071369 0.027511
0.562985 -0.043989 0.011530
0.577016 0.068171 0.082021
0.596974 0.063868 0.073136
0.609810 -0.020680 0.028866
0.585116 0.016606 0.010782
0.609050 0.015349 0.069110
0.576036 0.081153 0.025409
0.534793 0.017618 0.068136
0.555520 -0.018683 0.005417
0.527598 0.014042 0.027101
0.566173 0.092558 0.067265
0.585426 -0.034941 0.066902
0.604568 0.059836 0.050234
0.586488 -0.069539 0.044186
0.575717 0.017945 0.006422
0.532584 0.061565 0.064509
0.540711 0.060790 0.018878
0.592891 0.011550 0.080513
0.563983 0.072003 0.015717
0.595165 0.077117 0.059558
0.583727 0.082786 0.034440
0.539370 0.023009 0.009966
0.525980 0.014598 0.035568
0.539285 0.050129 0.075745
0.609331 0.010803 0.068112
0.592458 -0.024764 0.012916
0.526230 0.034629 0.055318
0.576509 -0.068367 0.022459
0.612371 -0.073257 0.035474
0.561710 -0.011275 0.074390
0.577688 -0.058272 0.052321
0.599078 0.057160 0.033462
0.570702 -0.052733 0.053324
0.590415 0.015022 0.082066
0.605573 0.055123 0.064678
0.538615 0.074258 0.028136
0.605073 -0.060690 0.052754
0.537059 -0.014436 0.050143
0.580683 0.087124 0.067355
0.595997 -0.039967 0.014010
0.570580 -0.059154 0.046227
0.598993 0.071709 0.052007
0.557489 -0.038628 0.011234
0.550882 0.086612 0.028295
0.613276 -0.017253 0.037202
0.587630 -0.029778 0.010220
0.534570 -0.012288 0.021234
0.605935 0.011526 0.029728
0.528772 0.010857 0.052882
0.609042 0.021743 0.037358
0.607072 -0.038342 0.058637
0.577455 0.093629 0.048895
0.594459 0.066577 0.074045
0.526947 0.018778 0.027939
0.567824 -0.036852 0.063437
0.600951 -0.061519 0.015522
0.557725 0.072146 0.080135
0.584233 -0.070899 0.039691
0.526699 0.014808 0.030275
0.581643 -0.037184 0.065973
0.566038 0.045346 0.007929
0.581514 0.088156 0.064567
0.527692 0.011694 0.049765
0.587249 0.011589 0.011707
0.589352 0.038632 0.084434
0.614844 -0.020870 0.042449
0.595178 0.004563 0.016788
0.559817 0.002752 0.003480
0.570879 -0.015348 0.004357
0.577296 -0.045473 0.009776
0.584952 -0.066638 0.017587
0.602819 0.029545 0.076493
0.620434 -0.060652 0.039142
0.539242 0.072679 0.068484
0.564849 0.094414 0.064923
0.527105 0.037866 0.058165
0.583184 0.078057 0.028290
0.600050 0.068166 0.046712
0.617555 -0.066110 0.041641
0.570294 0.041931 0.008087
0.596639 0.044135 0.080348
0.555979 -0.049593 0.022248
0.555908 0.077532 0.019037
0.527955 0.057352 0.039476
0.530164 -0.001898 0.029141
0.571099 0.042043 0.087741
0.597700 -0.007520 0.017720
0.610867 0.026841 0.065613
0.606660 0.031477 0.035590
0.597174 -0.046582 0.014195
0.563359 -0.058650 0.034715
0.595833 0.072783 0.041950
0.598319 0.072632 0.051026
0.531092 0.039831 0.066891
0.548335 0.068694 0.016953
0.580778 -0.012293 0.075592
0.616949 -0.057864 0.046544
0.619867 -0.048930 0.036164
0.549123 -0.006422 0.005176
0.612761 -0.015844 0.054617
0.593884 0.078462 0.048356
0.547305 0.015111 0.005362
0.572636 0.085123 0.027548
0.607275 -0.047807 0.019275
0.577370 0.037912 0.087270
0.529997 0.009702 0.055471
0.597384 0.038692 0.024379
0.583654 0.007389 0.009125
0.567800 0.093704 0.037462
0.604233 0.053326 0.040851
0.528694 0.040684 0.025595
0.577811 -0.068891 0.035995
0.599077 -0.001448 0.074113
0.547260 -0.007027 0.069212
0.556869 0.091820 0.032783
0.593400 0.048680 0.081601
0.560170 -0.021816 0.005261
0.589142 0.076404 0.072146
0.534793 0.066257 0.065858
0.565081 -0.055574 0.045153
0.610695 -0.046291 0.054314
0.613717 -0.022425 0.051344
0.548324 -0.038116 0.020177
0.552729 -0.044728 0.041668
0.602474 -0.058259 0.054595
0.620119 -0.050430 0.035774
0.579624 0.025330 0.085968
0.618190 -0.058562 0.026074
0.619579 -0.053741 0.030610
0.569296 0.090394 0.069183
0.550132 0.074882 0.076183
0.564600 0.097792 0.045456
0.599007 0.058902 0.034399
0.584818 0.081687 0.071054
0.564581 0.053361 0.009455
0.542772 0.071859 0.072519
0.534877 0.073353 0.060886
0.610993 0.033450 0.047361
0.585241 0.071680 0.025152
0.591882 -0.070174 0.019315
0.604937 0.027358 0.074451
0.526627 0.012376 0.032766
0.562675 0.096626 0.041417
0.610912 0.031122 0.045582
0.610067 -0.027907 0.026924
0.526882 0.052038 0.051652
0.535026 0.010370 0.065542
0.593709 -0.037482 0.064858
0.537415 0.083355 0.041152
0.541910 0.058616 0.017003
0.592627 -0.028373 0.012818
0.532617 0.038542 0.069160
0.547416 -0.038981 0.035275
0.577615 -0.018797 0.073375
0.613173 -0.054133 0.050911
0.531141 0.035894 0.066647
0.578187 -0.058474 0.014240
0.540904 0.043097 0.012118
0.529150 0.008839 0.052250
0.565598 0.097307 0.044408
0.616286 -0.044279 0.047994
0.551987 -0.029356 0.058900
0.525553 0.043900 0.038377
0.549369 0.015459 0.079322
0.613209 -0.040291 0.052412
0.609932 -0.041463 0.022757
0.572248 0.013830 0.005149
0.590756 0.014595 0.014522
0.610110 -0.044637 0.055070
0.562993 0.023838 0.004689
0.575698 -0.003691 0.005179
0.524659 0.029230 0.046761
0.574022 0.094089 0.059845
0.552939 -0.046931 0.028041
0.575413 -0.016978 0.074015
0.537146 0.049456 0.017336
0.564250 0.086721 0.026531
0.586483 -0.071545 0.040467
0.617347 -0.035939 0.039277
0.537612 0.015261 0.010838
0.570569 0.092609 0.065536
0.532377 0.064511 0.062141
0.558138 0.043970 0.007283
0.595142 -0.026870 0.014314
0.556003 0.003476 0.078428
0.558288 0.086385 0.026009
0.598490 0.038329 0.025532
0.598693 -0.042459 0.061743
0.532700 0.014024 0.016431
0.528556 0.047932 0.029463
0.571937 0.027883 0.086879
0.528438 0.060786 0.041628
0.609853 0.044014 0.056878
0.574257 0.093377 0.061347
0.532967 0.019914 0.066356
0.587116 0.072589 0.027787
0.560088 0.045308 0.007502
0.592067 -0.040183 0.064169
0.609570 -0.041629 0.022414
0.614278 -0.021360 0.038264
0.542139 0.089658 0.056550
0.588305 -0.070611 0.043576
0.527839 0.022209 0.057330
0.574940 -0.032113 0.067715
0.562043 -0.009728 0.075136
0.534915 -0.016121 0.028578
0.566960 -0.012862 0.074855
0.540249 0.045809 0.077048
0.539413 0.021842 0.074256
0.612201 -0.070111 0.043429
0.595097 0.075333 0.044544
0.573225 0.090118 0.034765
0.582607 -0.045217 0.062279
0.552746 0.006073 0.004016
0.612712 -0.027634 0.030933
0.532714 0.060383 0.065386
0.524587 0.036281 0.044697
0.546308 -0.037208 0.036134
0.542896 0.089904 0.042098
0.544422 0.090596 0.040549
0.579211 0.089868 0.063689
0.591352 0.080341 0.063723
0.606504 0.014607 0.031228
0.538367 0.062522 0.072126
0.560092 0.015177 0.003968
0.569625 -0.028607 0.005987
0.614305 0.002338 0.050445
0.609004 0.025773 0.069304
0.615878 -0.028703 0.039326
0.592737 -0.033355 0.066522
0.545976 0.088774 0.034786
0.608912 0.047424 0.058685
0.528863 0.005831 0.026449
0.536713 0.082260 0.055101
0.542824 0.083238 0.030905
0.566267 -0.015535 0.073640
0.575422 -0.052973 0.055679
0.533830 -0.003821 0.016864
0.554268 0.066623 0.080854
0.605816 -0.026018 0.062290
0.602581 0.029115 0.076718
0.564755 0.085943 0.025780
0.539213 0.053059 0.016926
0.549619 0.085935 0.028239
0.569525 0.092049 0.035556
0.592011 -0.021980 0.070552
0.528995 0.017118 0.057854
0.592394 0.044426 0.020981
0.526894 0.027195 0.056335
0.557284 0.016787 0.082780
0.565020 0.012136 0.003996
0.612496 -0.003660 0.058487
0.527745 0.028107 0.025065
0.590422 -0.049223 0.060554
0.579428 -0.033800 0.067362
0.589103 -0.058938 0.055212
0.540521 -0.016566 0.012609
0.575357 0.007307 0.082237
0.555657 0.058745 0.083311
0.551614 -0.002475 0.074170
0.570503 -0.048598 0.011449
0.595959 -0.036658 0.014180
0.566920 0.010128 0.082818
0.533344 0.019995 0.066921
0.587400 0.021809 0.013006
0.617253 -0.066053 0.026741
0.553540 0.030679 0.084177
0.608264 0.048150 0.049505
0.541636 0.087736 0.059426
0.531392 0.006359 0.056362
0.608768 0.047556 0.051967
0.574048 0.055898 0.012044
0.586657 -0.007503 0.010276
0.578100 0.048875 0.011951
0.562360 0.062032 0.084089
0.525328 0.043888 0.040675
0.577637 0.003731 0.006081
0.614866 -0.022128 0.040798
0.564385 -0.032496 0.064650
0.526243 0.015309 0.032414
0.605505 0.052027 0.043155
0.567305 0.094671 0.063644
0.545042 0.092870 0.054815
0.536712 0.070459 0.028179
0.542742 0.041874 0.079099
0.604742 0.053447 0.068579
0.536526 0.001052 0.011781
0.528376 0.060784 0.049924
0.577555 -0.010183 0.076490
0.528570 0.032566 0.023708
0.526634 0.010547 0.037435
0.608981 0.040808 0.065674
0.577754 0.085435 0.031450
0.553780 0.054097 0.083426
0.579810 -0.043652 0.009393
0.612259 -0.040231 0.053557
0.613352 0.022858 0.055471
0.549049 0.069632 0.077565
0.594635 -0.075935 0.035372
0.550207 0.087902 0.030168
0.593994 -0.037953 0.064627
0.602024 0.065955 0.051398
0.558466 0.019965 0.083831
0.599377 -0.058438 0.014695
0.588763 -0.055716 0.012595
0.592494 0.016133 0.081596
0.578241 0.031376 0.086850
0.602432 0.019628 0.076505
0.529774 0.001895 0.046279
0.537971 -0.020899 0.042903
0.553016 0.004348 0.077572
0.607118 0.016198 0.071627
0.563081 -0.046231 0.053878
0.589000 0.038106 0.084574
0.619441 -0.049980 0.042151
0.587745 -0.022724 0.010414
0.580832 0.076900 0.077215
0.585332 0.036210 0.085719
0.595505 -0.017385 0.015271
0.577891 0.085486 0.031641
0.527971 0.052064 0.033994
0.595544 0.044634 0.080980
0.540415 -0.001801 0.065770
0.604867 -0.028171 0.062584
0.551670 0.016364 0.004499
0.602969 -0.040771 0.060530
0.550110 -0.011948 0.068545
0.558940 0.022814 0.004435
0.599891 -0.071532 0.020703
0.530616 0.067046 0.054324
0.538059 -0.016210 0.015876
0.575450 -0.022247 0.071985
0.563886 0.091142 0.069380
0.556101 -0.004561 0.075336
0.565127 0.090962 0.069432
0.560470 -0.028619 0.065122
0.613936 -0.028886 0.032652
0.541780 -0.015225 0.010791
0.612544 -0.029854 0.053800
0.604408 0.059985 0.049600
0.595083 0.050459 0.025312
0.536932 0.082949 0.054463
0.585725 0.052924 0.017871
0.553646 -0.047902 0.033459
0.541464 0.074533 0.025071
0.566659 0.062761 0.012378
0.603707 -0.016540 0.066290
0.573018 -0.029364 0.006220
0.617807 -0.045066 0.031630
0.542271 0.066421 0.074208
0.553821 -0.045315 0.043300
0.590975 0.068121 0.076184
0.570959 -0.064706 0.022090
0.610188 -0.032119 0.025742
0.603461 0.055078 0.069980
0.548889 0.074017 0.075865
0.589734 0.083949 0.056992
0.608492 0.045761 0.063910
0.554914 0.006217 0.003808
0.617652 -0.053163 0.046243
0.590483 -0.016404 0.012240
0.527446 0.043833 0.030080
0.602660 0.032422 0.076536
0.588250 -0.075013 0.030270
0.525869 0.048731 0.044162
0.536432 0.023835 0.071704
0.606547 -0.031128 0.022137
0.570514 0.022713 0.005592
0.540628 -0.027995 0.035659
0.596057 -0.047886 0.013676
0.613228 -0.025255 0.033041
0.539248 -0.003951 0.062894
0.559362 0.048571 0.086074
0.559939 0.059752 0.084252
0.618494 -0.045814 0.043484
0.589027 -0.065122 0.016125
0.567860 0.038804 0.007115
0.574743 0.091800 0.064226
0.598542 0.071465 0.048209
0.560157 0.005911 0.003560
0.568526 -0.034576 0.007337
0.600254 0.054660 0.033968
0.531563 0.000213 0.020363
0.587554 -0.026451 0.010215
0.554140 -0.017479 0.068082
0.541965 0.060593 0.075621
0.558619 -0.044569 0.013852
0.600744 0.068553 0.051905
0.619934 -0.063608 0.031679
0.613369 0.014103 0.059615
0.594535 -0.053558 0.013174
0.552387 0.095026 0.061471
0.582849 0.090032 0.054611
0.590810 0.066444 0.027697
0.577148 0.012063 0.006421
0.588429 0.039329 0.016727
0.573250 0.068925 0.016332
0.537232 0.068213 0.026150
0.560095 0.036797 0.006023
0.601108 0.045420 0.076559
0.564214 0.091314 0.069153
0.528801 0.044566 0.062169
0.544827 0.092481 0.055823
0.601001 0.068315 0.055603
0.603149 0.020593 0.027509
0.588668 0.084279 0.047143
0.599885 0.064345 0.040609
0.538667 0.003301 0.066674
0.604307 -0.016377 0.065839
0.570297 -0.038427 0.063382
0.545376 -0.028966 0.051171
0.539007 0.050100 0.015918
0.524991 0.035015 0.035838
0.606399 -0.006055 0.066847
0.605524 0.041893 0.037189
0.586857 -0.065135 0.049714
0.536990 0.011033 0.011100
0.584649 -0.061386 0.052428
0.597213 0.028026 0.021976
0.536454 0.058291 0.022034
0.575563 0.026436 0.007260
0.532279 0.074417 0.044559
0.577480 0.053537 0.085676
0.560313 0.010228 0.003726
0.553289 0.072158 0.078679
0.567832 -0.044182 0.010321
0.618646 -0.065957 0.039454
0.528307 0.016561 0.055723
0.595896 -0.025016 0.014888
0.610719 0.001832 0.063805
0.591305 -0.059121 0.055294
0.584965 0.086151 0.042289
0.583454 0.082334 0.033473
0.602463 -0.021934 0.019997
0.527882 0.005204 0.037032
0.545675 -0.025743 0.054971
0.599601 -0.001831 0.073680
0.583854 -0.017285 0.008494
0.601135 0.068030 0.056087
0.544850 0.037109 0.080539
0.594682 0.005668 0.078390
0.611977 -0.036230 0.054231
0.591172 0.050665 0.021585
0.563311 0.096119 0.062268
0.613469 -0.012486 0.053126
0.543146 -0.028736 0.046562
0.550214 -0.042994 0.035445
0.562075 -0.052898 0.017333
0.538834 0.019935 0.010152
0.601157 -0.028038 0.065037
0.597076 0.056424 0.077075
0.610507 0.011923 0.066480
0.606286 -0.057352 0.017200
0.584629 0.049020 0.084931
0.587657 0.060085 0.081385
0.560124 -0.055982 0.031044
0.541734 0.004325 0.007409
0.601410 0.048720 0.032896
0.603969 0.047193 0.036623
0.586412 0.086433 0.046976
0.554921 0.008845 0.079809
0.533526 0.031106 0.069484
0.573419 0.039015 0.087670
0.530772 0.024540 0.064197
0.609309 0.023801 0.038463
0.537620 -0.010355 0.055430
0.609578 -0.049568 0.054472
0.528088 0.010868 0.050535
0.599009 -0.064304 0.051735
0.554243 -0.047268 0.039811
0.598744 -0.065924 0.016584
0.587308 0.034246 0.085143
0.573499 0.090387 0.035420
0.561572 -0.034762 0.008392
0.531145 0.016014 0.061925
0.546150 0.004521 0.073892
0.560606 0.086240 0.073704
0.610747 -0.005911 0.034516
0.583609 0.020223 0.010221
0.613181 -0.015131 0.053591
0.531734 0.072633 0.043192
0.533234 0.022218 0.067375
0.552539 0.095282 0.040719
0.535396 0.066259 0.066847
0.550374 0.045959 0.008826
0.611270 -0.070749 0.043312
0.548515 0.069826 0.017361
0.558022 -0.051281 0.020609
0.554619 0.083711 0.024077
0.605621 -0.022730 0.063191
0.594190 0.045023 0.022777
0.609540 -0.004699 0.063506
0.595940 0.068003 0.036323
0.534147 0.077114 0.039991
0.590771 0.026755 0.083607
0.538076 0.074466 0.065816
0.548876 -0.038870 0.020113
0.576919 0.065072 0.082992
0.572476 0.007877 0.082436
0.532990 -0.008523 0.044115
0.569180 -0.005698 0.077849
0.568988 0.096301 0.059127
0.566246 -0.002980 0.078540
0.570116 -0.059537 0.045195
0.566640 0.087098 0.073088
0.603118 -0.058278 0.054416
0.589693 -0.016476 0.072931
0.536742 -0.006217 0.013089
0.530081 -0.000671 0.043200
0.554378 0.025498 0.083727
0.598274 0.072577 0.059253
0.593020 0.007165 0.079423
0.617939 -0.039552 0.037021
0.572848 0.016836 0.084777
0.606890 0.001620 0.068803
0.545625 0.093632 0.049015
0.578129 -0.007251 0.077485
0.585205 0.084552 0.066717
0.552450 0.096494 0.057310
0.543047 0.014356 0.006967
0.528380 0.016982 0.056187
0.569815 0.035698 0.087688
0.564674 0.045985 0.087314
0.613951 0.009659 0.056536
0.596607 -0.065501 0.016152
0.546774 -0.025696 0.011158
0.548236 0.095348 0.052468
0.553121 0.058381 0.082410
0.533252 0.073602 0.056184
0.573466 -0.003765 0.004589
0.595507 -0.005653 0.016194
0.558616 -0.021904 0.068069
0.602687 -0.033813 0.062603
0.549636 -0.032108 0.054132
0.593407 -0.073939 0.022947
0.559130 0.098678 0.050903
0.594125 -0.031952 0.066663
0.605670 0.056128 0.062649
0.575961 -0.008772 0.077019
0.604922 0.026679 0.031348
0.575333 -0.063263 0.044949
0.586932 0.077209 0.031815
0.578384 -0.009524 0.006043
0.548374 0.053310 0.011516
0.593165 0.080249 0.055995
0.610398 -0.008053 0.061169
0.543659 -0.015068 0.060820
0.585413 0.082560 0.036503
0.557391 0.084554 0.074212
0.576078 -0.048383 0.059148
0.616962 -0.054111 0.047128
0.532593 0.038388 0.018491
0.543122 0.058067 0.015904
0.551239 0.029079 0.005453
0.612957 -0.049117 0.051935
0.581392 -0.019899 0.007377
0.568863 0.092179 0.035415
0.562999 -0.048519 0.051573
0.603731 0.060548 0.047287
0.526807 0.009736 0.037881
0.577453 0.032710 0.087052
0.551823 0.043134 0.007817
0.565553 -0.021780 0.070681
0.539226 -0.021586 0.046571
0.595971 0.074155 0.064219
0.603263 -0.045650 0.058970
0.549927 -0.037932 0.016799
0.529693 0.018846 0.021392
0.585588 0.058071 0.019235
0.592829 0.070794 0.072816
0.561578 -0.002531 0.077876
0.556545 -0.041431 0.052640
0.590693 0.062493 0.079006
0.615591 -0.055390 0.023395
0.617413 -0.036741 0.037817
0.615964 -0.032371 0.035678
0.573573 0.008168 0.082520
0.530032 0.045677 0.064800
0.614197 -0.007702 0.050374
0.544923 0.062621 0.016440
0.587016 -0.046255 0.010837
0.577323 -0.058019 0.014170
0.546249 -0.021876 0.009862
0.526078 0.035727 0.054791
0.574728 0.078196 0.078268
0.556754 -0.047804 0.018069
0.564832 0.044884 0.007697
0.532436 0.068154 0.059505
0.593860 0.054940 0.025601
0.524454 0.033558 0.043505
0.602729 0.033088 0.029635
0.563364 -0.044405 0.011580
0.554376 -0.032427 0.058574
0.556023 0.084694 0.024665
0.581795 -0.031388 0.068436
0.528909 0.049960 0.061092
0.604745 0.053697 0.042462
0.607218 -0.059313 0.017566
0.546333 0.092182 0.040967
0.604738 0.048611 0.038925
0.534137 -0.006290 0.051359
0.574290 0.006288 0.081970
0.599391 -0.063303 0.015615
0.526902 0.016249 0.028818
0.548953 0.046609 0.082111
0.605004 0.017441 0.029490
0.573663 -0.066978 0.033697
0.543944 -0.031591 0.043490
0.606596 0.042269 0.039608
0.601014 -0.074522 0.041021
0.598179 0.000368 0.075198
0.545792 0.050745 0.011821
0.553011 -0.021852 0.006748
0.547165 -0.027588 0.055264
0.542901 0.033136 0.079086
0.600603 -0.066586 0.049985
0.575526 0.086452 0.030979
0.558374 0.060350 0.083746
0.553032 -0.043322 0.045246
0.561580 -0.029875 0.006926
0.550723 -0.043563 0.026024
0.568645 -0.033212 0.065791
0.620359 -0.057850 0.040431
0.582150 -0.068778 0.019932
0.608093 -0.007121 0.029627
0.613406 -0.012031 0.039712
0.525470 0.040056 0.035623
0.525737 0.015954 0.043273
0.600948 0.065716 0.045468
0.575485 -0.068916 0.026328
0.583650 0.089480 0.051647
0.550679 0.061693 0.013272
0.554713 -0.030477 0.008888
0.526303 0.013624 0.044443
0.583758 -0.022816 0.071679
0.586025 0.077431 0.030895
0.538177 0.053417 0.074273
0.570738 0.058097 0.085382
0.567799 -0.046756 0.011300
0.620005 -0.049408 0.038334
0.556294 -0.015466 0.004742
0.589948 -0.060137 0.013847
0.565477 0.046086 0.087382
0.539928 -0.023664 0.045311
0.570709 -0.049306 0.056209
0.526733 0.035189 0.056994
0.561649 -0.008286 0.003580
0.580670 -0.068384 0.041366
0.594797 0.065919 0.032651
0.556933 -0.004534 0.075672
0.601145 0.007588 0.075423
0.610243 0.042012 0.058404
0.601819 0.017565 0.025222
0.554512 0.097762 0.053229
0.543005 0.084908 0.064817
0.601893 -0.001471 0.072278
0.601421 0.067325 0.052378
0.592100 0.020144 0.082386
0.530640 0.011344 0.019854
0.571930 0.027226 0.086781
0.547197 0.041580 0.081656
0.577460 0.093211 0.056818
0.589039 0.084186 0.048288
0.572878 -0.035932 0.007486
0.539837 0.017568 0.073553
0.541994 -0.028700 0.042550
0.613780 0.000392 0.055496
0.614859 -0.064187 0.022755
0.534144 -0.014293 0.029735
0.563788 0.004744 0.080831
0.588781 0.020486 0.013837
0.606140 -0.026068 0.061995
0.609785 0.040953 0.048461
0.537734 0.053940 0.018664
0.579665 -0.042526 0.063276
0.600240 0.069484 0.057929
0.574783 -0.039683 0.063905
0.574240 0.038401 0.008515
0.610474 0.001519 0.064112
0.550101 0.032575 0.083011
0.535047 0.019363 0.013781
0.544659 -0.013077 0.063261
0.587457 -0.029546 0.068830
0.597459 -0.061678 0.053566
0.611772 0.033575 0.051983
0.538452 0.042707 0.013748
0.563318 -0.034077 0.063202
0.538764 0.070693 0.025673
0.611726 -0.065971 0.047330
0.571631 0.012937 0.004948
0.580417 0.083052 0.072773
0.544562 -0.016145 0.008994
0.580235 0.058722 0.015678
0.602663 0.060386 0.066781
0.596859 0.026060 0.021279
0.524785 0.027517 0.047193
0.539094 0.018239 0.073060
0.601150 -0.068312 0.048588
0.539805 -0.012662 0.011733
0.539581 0.016758 0.009310
0.558451 0.034599 0.005675
0.536682 -0.010935 0.015046
0.556154 0.030108 0.084947
0.569624 0.032806 0.087456
0.539678 0.081136 0.063271
0.569381 0.069802 0.015603
0.590580 0.012823 0.081548
0.606796 -0.060785 0.052157
0.538390 0.072694 0.027348
0.585395 -0.062367 0.051813
0.554967 0.015579 0.004125
0.544806 0.092469 0.055796
0.615334 -0.026993 0.038062
0.612158 -0.036216 0.026753
0.594340 -0.002256 0.015587
0.583636 0.020590 0.084607
0.610395 -0.006385 0.061698
0.562381 0.048058 0.008111
0.606381 -0.068995 0.020321
0.596353 0.071170 0.067661
0.607978 0.036924 0.069256
0.543169 -0.016232 0.059407
0.563024 0.064693 0.083466
0.602380 0.016826 0.025786
0.591229 -0.071615 0.020599
0.613676 0.007550 0.057861
0.524799 0.038581 0.046469
0.604734 0.056633 0.065573
0.546075 -0.037111 0.033656
0.578404 0.047356 0.011766
0.529794 0.044724 0.064404
0.557414 0.028041 0.085037
0.588442 -0.033078 0.067370
0.535524 0.078044 0.057714
0.581196 -0.011050 0.007224
0.599265 0.071176 0.058034
0.612292 -0.048105 0.052670
0.568694 -0.043731 0.059345
0.530809 0.046332 0.024009
0.592460 -0.059163 0.013633
0.531363 0.063215 0.032943
0.609250 0.008135 0.034575
0.536715 0.059578 0.022349
0.553463 0.080881 0.022020
0.590052 0.001480 0.078692
0.547429 0.051110 0.011229
0.578609 0.062339 0.015975
0.530153 0.028561 0.063981
0.597312 -0.054840 0.057247
0.559675 0.089219 0.071249
0.562756 -0.058874 0.026966
0.584703 -0.033433 0.009100
0.559636 -0.021443 0.005254
0.607703 0.019509 0.071174
0.590927 0.076495 0.037022
0.605224 -0.010451 0.066645
0.604096 -0.014540 0.022878
0.552151 0.049638 0.083312
0.566445 -0.061585 0.023114
0.611267 -0.017178 0.032533
0.527624 0.007374 0.042825
0.596793 0.028943 0.021726
0.588064 -0.011682 0.010981
0.530642 -0.003256 0.028193
0.581516 -0.060144 0.052373
0.575801 -0.018972 0.073277
0.544669 -0.035001 0.029828
0.537174 -0.016066 0.048381
0.600781 0.066122 0.045587
0.614057 0.008771 0.055624
0.569878 -0.051182 0.012650
0.607628 -0.027589 0.024086
0.547588 0.045663 0.009589
0.538170 -0.003309 0.061824
0.594214 0.029782 0.019484
0.561183 -0.046320 0.013428
0.526834 0.054161 0.044383
0.561535 0.082422 0.022233
0.533461 0.061628 0.027838
0.560478 -0.004470 0.003488
0.583295 -0.006869 0.008355
0.534265 -0.014667 0.033275
0.538307 0.011714 0.070157
0.573077 0.096112 0.051040
0.568687 -0.029774 0.067599
0.545584 0.092244 0.042588
0.588113 -0.007810 0.076137
0.575563 -0.031085 0.068259
0.530430 0.068871 0.043595
0.555088 -0.001132 0.003768
0.612113 0.025153 0.046784
0.528741 0.062710 0.048770
0.543032 0.046204 0.011779
0.611068 -0.042758 0.023428
0.539907 0.084697 0.060077
0.600405 -0.032418 0.064185
0.528216 0.059242 0.051430
0.550436 -0.034466 0.052775
0.591914 0.053482 0.081348
0.589799 -0.069171 0.018724
0.582531 -0.061301 0.014880
0.542696 -0.019090 0.056608
0.530615 0.025367 0.064125
0.578620 0.064251 0.082916
0.580501 -0.013431 0.075206
0.569975 -0.010229 0.004009
0.575740 0.041090 0.087423
0.555219 0.029152 0.005056
0.600851 -0.022376 0.018566
0.607805 0.025122 0.071090
0.612908 -0.006881 0.056410
0.577639 0.081997 0.027308
0.527716 0.010029 0.028658
0.603411 0.045073 0.074111
0.592739 0.080015 0.048626
0.531206 -0.001925 0.046942
0.597417 0.045735 0.026388
0.536331 0.080470 0.056851
0.616600 -0.068049 0.040949
0.613822 0.007462 0.046914
0.592892 0.032969 0.018934
0.606249 -0.011675 0.026075
0.572317 -0.047042 0.058654
0.548761 0.085560 0.028340
0.551509 0.007915 0.078106
0.586837 0.019377 0.083788
0.527586 0.031557 0.059121
0.553680 -0.025243 0.063151
0.614004 -0.036110 0.051298
0.528307 0.015737 0.024621
0.592024 0.038756 0.019367
0.618074 -0.039946 0.041032
0.615638 -0.030342 0.046399
0.592625 -0.042678 0.012408
0.566200 -0.057801 0.043070
0.529533 0.063368 0.039088
0.573856 -0.064860 0.040349
0.569174 0.086813 0.073014
0.582971 0.036285 0.012193
0.582509 0.048714 0.085539
0.526643 0.052796 0.042735
0.611489 0.016929 0.065057
0.570882 0.096394 0.056767
0.599440 0.048000 0.029709
