ply
format ascii 1.0
element vertex 1024
property float x
property float y
property float z
end_header
0.607596 0.033400 0.039353
0.553981 0.005212 0.076317
0.600596 -0.038625 0.057741
0.599757 0.040819 0.077536
0.587878 -0.016051 0.008781
0.579851 0.089817 0.038062
0.532514 0.049584 0.020736
0.557193 0.050378 0.084844
0.552035 -0.042761 0.042923
0.555427 0.097679 0.059869
0.598004 -0.039093 0.013311
0.612010 -0.068941 0.037136
0.533863 0.077930 0.046043
0.571473 -0.017394 0.001599
0.576386 -0.051565 0.054010
0.571264 0.002354 0.078691
0.578336 0.038537 0.086404
0.531781 -0.006356 0.021199
0.612041 0.019382 0.054466
0.526291 0.038879 0.028491
0.565436 0.046384 0.086755
0.578597 -0.060607 0.047645
0.551096 0.012302 0.001323
0.527317 0.057099 0.046564
0.546343 0.085612 0.029193
0.589474 -0.075167 0.023325
0.583826 -0.073425 0.028828
0.526520 0.047952 0.033659
0.599071 0.010784 0.075326
0.598248 -0.072193 0.040462
0.563422 0.007727 0.000908
0.610454 -0.025501 0.049846
0.580291 -0.071622 0.020390
0.596707 -0.012856 0.015386
0.537700 -0.017912 0.047187
0.608746 0.040741 0.046800
0.576699 -0.015300 0.071959
0.594321 -0.033196 0.011591
0.548167 0.032095 0.004105
0.613026 -0.033369 0.032965
0.546074 0.022723 0.078007
0.611467 0.018628 0.046497
0.566298 0.027632 0.085476
0.556763 -0.048417 0.013275
0.544644 0.003187 0.070397
0.531357 0.008160 0.056724
0.589573 0.051593 0.019530
0.606125 0.040365 0.038528
0.600730 -0.020523 0.063196
0.554684 0.075547 0.016999
0.569867 -0.058351 0.044260
0.561308 -0.000270 0.076429
0.547393 -0.018763 0.060051
0.605987 0.053171 0.063297
0.563353 -0.000803 0.076623
0.542687 -0.024660 0.010696
0.595560 0.073780 0.040936
0.539437 0.033771 0.075472
0.604621 0.000916 0.067585
0.598067 0.072170 0.045904
0.587320 -0.054281 0.008732
0.612709 -0.069953 0.031376
0.600508 0.057991 0.072239
0.558698 0.051593 0.085161
0.544458 0.017242 0.075467
0.601063 0.002747 0.021792
0.544191 0.091791 0.057605
0.591228 -0.055979 0.009560
0.527867 0.052494 0.032626
0.605548 0.053140 0.045050
0.526250 0.017848 0.049090
0.540916 -0.008809 0.060094
0.536168 0.061917 0.023022
0.550632 -0.000577 0.000986
0.556774 -0.031265 0.004601
0.581158 0.065569 0.017414
0.612869 -0.029665 0.041967
0.604931 0.054158 0.066112
0.547961 0.073656 0.075529
0.543133 0.069981 0.020379
0.544487 0.039460 0.006919
0.587728 -0.074726 0.022709
0.549266 -0.023770 0.058228
0.596893 -0.034086 0.061061
0.541844 0.090209 0.045259
0.599734 -0.075051 0.034125
0.549069 0.039286 0.081824
0.611007 0.027480 0.059738
0.591052 -0.049465 0.056542
0.611767 0.001167 0.043802
0.563194 0.099960 0.050389
0.611036 -0.009452 0.038672
0.526273 0.010603 0.035394
0.574477 -0.013350 0.072704
0.561936 0.033342 0.003542
0.539740 0.071041 0.024294
0.551920 0.097851 0.048564
0.538429 0.018352 0.007132
0.604948 0.022033 0.030937
0.547310 0.060125 0.078843
0.544454 0.043525 0.079203
0.536475 0.061281 0.022251
0.592916 -0.014087 0.069816
0.566857 -0.058409 0.041028
0.599653 -0.015846 0.017669
0.614491 -0.067613 0.029836
0.568255 0.092005 0.069332
0.594707 -0.041331 0.011157
0.585237 0.066362 0.020768
0.566329 0.099647 0.050582
0.548541 0.043556 0.081479
0.602852 0.054654 0.038680
0.585416 0.043767 0.084888
0.597616 -0.054359 0.053149
0.545706 -0.035975 0.040239
0.607756 0.049652 0.057224
0.541315 -0.007758 0.061286
0.552832 0.007869 0.076829
0.565033 -0.026343 0.065417
0.568888 -0.008824 0.000903
0.612096 -0.001322 0.046436
0.575979 -0.061112 0.045677
0.531223 0.016718 0.061349
0.573872 -0.025454 0.002690
0.559299 -0.055053 0.017782
0.602872 0.051675 0.036876
0.586396 -0.033718 0.063931
0.547974 -0.037914 0.015450
0.553967 -0.021905 0.002766
0.583622 0.090543 0.047961
0.595429 0.078240 0.055332
0.552212 -0.005758 0.070810
0.525526 0.027680 0.051513
0.597003 -0.065090 0.047263
0.571348 -0.052828 0.050871
0.562181 0.037498 0.086289
0.546178 -0.031326 0.048172
0.555791 0.031871 0.003023
0.536481 0.073749 0.063517
0.532797 0.052465 0.067908
0.570284 0.067361 0.083246
0.583709 -0.033933 0.064054
0.565333 0.097739 0.041899
0.611701 -0.012997 0.047173
0.588344 0.074327 0.028880
0.567654 0.020195 0.083971
0.549486 0.064150 0.079233
0.589487 0.084360 0.045792
0.563290 0.096512 0.064274
0.561505 -0.000878 0.000349
0.600216 -0.042102 0.056824
0.569307 0.090978 0.031277
0.596542 0.074631 0.063181
0.559592 0.092015 0.069940
0.559384 0.020596 0.082764
0.546742 0.056657 0.079093
0.581714 0.022564 0.007647
0.584589 0.088168 0.042681
0.579166 -0.046153 0.006453
0.529551 0.052159 0.027678
0.543951 -0.034225 0.021657
0.589582 -0.053674 0.054597
0.601514 -0.023649 0.061638
0.528549 0.001502 0.036547
0.601189 -0.058234 0.050434
0.540670 -0.012937 0.056823
0.605257 0.056355 0.047907
0.572488 -0.020633 0.069534
0.529747 0.006262 0.018913
0.570452 0.004086 0.001610
0.569700 -0.009774 0.073842
0.561245 0.091717 0.030455
0.584837 -0.037289 0.062531
0.553386 -0.011357 0.001169
0.604380 0.056817 0.065003
0.542216 -0.031370 0.038008
0.567551 -0.010389 0.000751
0.555913 0.014259 0.001156
0.574243 0.097130 0.051943
0.589790 0.072426 0.029162
0.561101 -0.040910 0.006671
0.576067 0.067346 0.082845
0.596273 0.062545 0.074815
0.607874 -0.020491 0.027451
0.585785 0.018611 0.009837
0.606483 0.013755 0.069206
0.578674 0.082804 0.026910
0.532547 0.019380 0.064499
0.555053 -0.015054 0.001343
0.527418 0.017914 0.023027
0.567072 0.092810 0.068677
0.580904 -0.035285 0.063484
0.604906 0.059176 0.052176
0.581716 -0.068878 0.039296
0.576699 0.020557 0.005063
0.532398 0.063498 0.062776
0.542921 0.064342 0.017638
0.589589 0.010191 0.079573
0.566783 0.074631 0.016200
0.595757 0.076438 0.061782
0.585933 0.083698 0.036391
0.540461 0.027081 0.006952
0.525373 0.018173 0.031416
0.537997 0.051297 0.073808
0.606624 0.009249 0.068017
0.591245 -0.023099 0.010455
0.525411 0.037297 0.052047
0.572975 -0.066319 0.017158
0.607849 -0.073367 0.031772
0.557843 -0.010931 0.070810
0.572977 -0.057593 0.047471
0.600215 0.057479 0.035038
0.566188 -0.051796 0.048364
0.587182 0.013699 0.081152
0.604935 0.053800 0.066422
0.540903 0.077475 0.027381
0.600173 -0.061248 0.049209
0.534416 -0.011932 0.045202
0.581314 0.086735 0.069269
0.594074 -0.038478 0.011034
0.566176 -0.057891 0.040984
0.599751 0.071198 0.054199
0.555860 -0.035301 0.006336
0.553655 0.089250 0.028738
0.611029 -0.017587 0.036102
0.586360 -0.027771 0.007286
0.533574 -0.008422 0.016331
0.605324 0.011789 0.029582
0.527072 0.013563 0.048662
0.608447 0.021516 0.037821
0.602798 -0.039288 0.056202
0.579359 0.094173 0.050984
0.593829 0.065322 0.075716
0.526925 0.022634 0.024046
0.563448 -0.036256 0.059030
0.598023 -0.060276 0.011814
0.557090 0.072257 0.080147
0.579650 -0.069940 0.034633
0.526384 0.018581 0.026182
0.577084 -0.037315 0.062259
0.568122 0.048272 0.007319
0.582336 0.087849 0.066578
0.526197 0.014583 0.045535
0.587652 0.013468 0.010641
0.586994 0.037208 0.084539
0.612160 -0.021494 0.041253
0.594992 0.005881 0.015799
0.560351 0.006231 0.000612
0.570574 -0.012366 0.001231
0.575410 -0.042954 0.005592
0.581733 -0.064759 0.012813
0.600471 0.027882 0.076898
0.616230 -0.061306 0.036425
0.539298 0.074120 0.067593
0.565956 0.094824 0.066358
0.526269 0.040365 0.055081
0.585521 0.079269 0.030012
0.600940 0.067844 0.048810
0.612993 -0.066733 0.038519
0.572214 0.044666 0.007540
0.594716 0.042553 0.081091
0.553300 -0.046655 0.016744
0.558782 0.080366 0.019347
0.528944 0.060587 0.037370
0.529195 0.001802 0.024467
0.568751 0.041284 0.087051
0.596947 -0.006331 0.016306
0.608969 0.025296 0.066337
0.606578 0.031414 0.036379
0.594957 -0.045141 0.010978
0.559611 -0.056565 0.029149
0.597184 0.072847 0.044052
0.599171 0.072192 0.053228
0.529862 0.041770 0.064081
0.550965 0.071974 0.016472
0.576759 -0.012850 0.072948
0.612474 -0.058689 0.043756
0.616320 -0.049452 0.033960
0.549203 -0.002520 0.001332
0.609642 -0.016914 0.053514
0.595136 0.078325 0.050601
0.548290 0.019043 0.002407
0.575336 0.086825 0.029049
0.604711 -0.047035 0.016512
0.574858 0.036902 0.086716
0.528107 0.012244 0.051255
0.598230 0.039516 0.025045
0.584026 0.009549 0.007688
0.570342 0.095175 0.039081
0.604799 0.053101 0.042501
0.529720 0.044521 0.022799
0.573526 -0.067488 0.030706
0.595554 -0.002780 0.072914
0.543884 -0.005821 0.065092
0.559609 0.093986 0.033763
0.591610 0.047179 0.082381
0.559567 -0.018382 0.001284
0.589043 0.075450 0.073996
0.534728 0.068024 0.064450
0.560899 -0.054025 0.039792
0.606308 -0.047196 0.051713
0.610492 -0.023382 0.049997
0.546260 -0.034769 0.014808
0.549222 -0.042498 0.036172
0.597584 -0.058786 0.051022
0.616529 -0.050943 0.033515
0.576643 0.024301 0.084959
0.614781 -0.058553 0.023367
0.616127 -0.054000 0.028185
0.569994 0.090428 0.070654
0.549843 0.075498 0.075937
0.566894 0.099052 0.047078
0.600168 0.059179 0.036049
0.585010 0.080963 0.072924
0.566925 0.056270 0.009131
0.542569 0.072969 0.071764
0.535379 0.075318 0.059818
0.610353 0.032679 0.048436
0.587471 0.072949 0.026696
0.588405 -0.068673 0.014734
0.602601 0.025693 0.074870
0.526075 0.016049 0.028552
0.565142 0.098149 0.042896
0.610269 0.030436 0.046551
0.607928 -0.027631 0.025196
0.526996 0.054802 0.049219
0.532611 0.012248 0.061593
0.589169 -0.038103 0.061757
0.539393 0.086044 0.040720
0.544125 0.062200 0.015730
0.591266 -0.026705 0.010201
0.531208 0.040317 0.066365
0.544507 -0.036247 0.029783
0.573447 -0.019104 0.070275
0.608631 -0.054986 0.048088
0.529757 0.037848 0.063660
0.575509 -0.056164 0.009498
0.542726 0.046968 0.010095
0.527398 0.011560 0.047959
0.567926 0.098569 0.046062
0.612310 -0.045163 0.045789
0.548207 -0.027870 0.054028
0.526037 0.047315 0.035536
0.546398 0.016088 0.076314
0.609172 -0.041237 0.050219
0.607443 -0.040974 0.020413
0.573132 0.016660 0.003425
0.591126 0.016189 0.013768
0.605754 -0.045552 0.052513
0.564347 0.027082 0.002945
0.575831 -0.000983 0.002833
0.524075 0.032350 0.043183
0.575366 0.094310 0.061751
0.550069 -0.044114 0.022488
0.571292 -0.017219 0.070883
0.538967 0.053257 0.015398
0.567091 0.088839 0.027674
0.581826 -0.070718 0.035493
0.614189 -0.036508 0.037529
0.538332 0.019389 0.007376
0.571553 0.092740 0.067182
0.532443 0.066550 0.060537
0.560217 0.047280 0.006203
0.593758 -0.025381 0.011892
0.552557 0.003871 0.075217
0.561157 0.088792 0.026830
0.599257 0.039054 0.026236
0.594097 -0.043158 0.058679
0.533080 0.018131 0.012645
0.529682 0.051593 0.026981
0.569034 0.027153 0.085587
0.529456 0.063899 0.039699
0.609153 0.042860 0.058355
0.575490 0.093524 0.063229
0.530918 0.021830 0.062734
0.589238 0.073658 0.029463
0.562207 0.048518 0.006584
0.587454 -0.040696 0.060861
0.607093 -0.041108 0.020044
0.611798 -0.021777 0.037025
0.543546 0.091455 0.056613
0.583516 -0.070002 0.038732
0.526384 0.024742 0.053570
0.570518 -0.032029 0.063882
0.558201 -0.009434 0.071641
0.533363 -0.012581 0.023501
0.562989 -0.012770 0.071472
0.538706 0.046886 0.074961
0.537007 0.023124 0.071037
0.607385 -0.070565 0.039843
0.596418 0.075313 0.046718
0.575748 0.091471 0.036508
0.577904 -0.045215 0.058256
0.553408 0.009839 0.000932
0.610364 -0.027651 0.029345
0.532431 0.062274 0.063603
0.524412 0.039480 0.041442
0.543430 -0.034464 0.030664
0.545087 0.092294 0.042246
0.546722 0.092984 0.040811
0.580158 0.089699 0.065661
0.591866 0.079646 0.065887
0.605942 0.014773 0.031248
0.537799 0.063864 0.070717
0.561125 0.018599 0.001680
0.568674 -0.025613 0.002187
0.612175 0.001345 0.050263
0.606867 0.024153 0.069874
0.613027 -0.029223 0.037833
0.588285 -0.034013 0.063555
0.548504 0.091346 0.035059
0.608262 0.046227 0.060265
0.528368 0.009691 0.022067
0.537898 0.084377 0.054549
0.545334 0.086130 0.030771
0.562249 -0.015354 0.070102
0.570761 -0.052348 0.050946
0.533428 0.000251 0.012320
0.553369 0.066868 0.080434
0.601871 -0.027091 0.060345
0.600203 0.027453 0.077091
0.567603 0.088073 0.026916
0.541203 0.056777 0.015259
0.552370 0.088634 0.028587
0.572096 0.093529 0.037194
0.587826 -0.022802 0.068057
0.527293 0.019587 0.053920
0.593677 0.045610 0.021660
0.525705 0.029804 0.052756
0.554165 0.016910 0.080233
0.565912 0.015342 0.001824
0.609686 -0.004909 0.057917
0.528270 0.032033 0.021647
0.585623 -0.049488 0.056756
0.574943 -0.033899 0.063685
0.584183 -0.058893 0.050915
0.539792 -0.012583 0.007839
0.571823 0.006665 0.080192
0.554290 0.058836 0.082596
0.548154 -0.001687 0.070470
0.568411 -0.045842 0.006768
0.594167 -0.035182 0.011354
0.563495 0.009832 0.080465
0.531267 0.021870 0.063321
0.588165 0.023606 0.012412
0.613492 -0.066016 0.023642
0.550943 0.030882 0.082068
0.608138 0.047379 0.051106
0.542810 0.089434 0.059368
0.529309 0.008806 0.052064
0.608483 0.046656 0.053561
0.576339 0.058267 0.012320
0.586330 -0.005498 0.008310
0.580090 0.051080 0.012115
0.561074 0.061784 0.083869
0.525689 0.047214 0.037815
0.578031 0.006299 0.004172
0.612217 -0.022680 0.039550
0.560136 -0.031807 0.060262
0.525835 0.019008 0.028315
0.605890 0.051648 0.044806
0.568486 0.095026 0.065220
0.546672 0.094607 0.055179
0.538842 0.073767 0.027152
0.540916 0.042758 0.076956
0.603826 0.051995 0.070194
0.536597 0.005215 0.007611
0.528949 0.063540 0.047972
0.573584 -0.010640 0.073774
0.529354 0.036505 0.020539
0.525754 0.014020 0.033127
0.607676 0.039317 0.066938
0.580246 0.086739 0.033221
0.552214 0.054277 0.082402
0.578016 -0.041233 0.005424
0.608166 -0.041185 0.051316
0.611824 0.021650 0.056165
0.548466 0.070248 0.077020
0.590046 -0.075243 0.030631
0.552936 0.090487 0.030631
0.589446 -0.038576 0.061520
0.602565 0.065346 0.053486
0.555423 0.019984 0.081489
0.596626 -0.057094 0.011048
0.586265 -0.053812 0.008529
0.589329 0.014736 0.080842
0.575472 0.030358 0.086043
0.599664 0.018001 0.076436
0.528046 0.004860 0.041717
0.535441 -0.018109 0.037731
0.549660 0.004913 0.074249
0.604456 0.014580 0.071656
0.558831 -0.044989 0.048820
0.586614 0.036693 0.084636
0.615530 -0.050741 0.039863
0.586763 -0.020744 0.007809
0.580501 0.076096 0.078646
0.582812 0.034915 0.085503
0.594471 -0.015973 0.013299
0.580374 0.086775 0.033421
0.529030 0.055546 0.031661
0.593611 0.043072 0.081688
0.537461 -0.000149 0.061543
0.600817 -0.029210 0.060490
0.552745 0.020137 0.001829
0.598500 -0.041611 0.057767
0.546555 -0.010830 0.064349
0.560274 0.026253 0.002436
0.596263 -0.070447 0.016471
0.531213 0.069499 0.052764
0.537176 -0.012259 0.010987
0.571215 -0.022391 0.068620
0.564618 0.091408 0.070604
0.552481 -0.004020 0.071770
0.565845 0.091171 0.070713
0.556368 -0.027784 0.060707
0.611440 -0.029029 0.031066
0.541203 -0.011222 0.006151
0.608875 -0.030851 0.052047
0.604787 0.059359 0.051543
0.596383 0.051323 0.026395
0.538180 0.085082 0.053956
0.587550 0.054524 0.018601
0.550443 -0.045350 0.027885
0.543921 0.077756 0.024483
0.569240 0.065432 0.012584
0.599953 -0.017711 0.064659
0.572014 -0.026531 0.002560
0.614672 -0.045307 0.029507
0.541748 0.067491 0.073174
0.550198 -0.043203 0.037831
0.590304 0.066925 0.077741
0.567614 -0.062401 0.016670
0.607934 -0.031789 0.023831
0.602541 0.053619 0.071600
0.548583 0.074705 0.075517
0.590765 0.083612 0.059254
0.607492 0.044359 0.065379
0.555589 0.009895 0.000844
0.613390 -0.054015 0.043706
0.589665 -0.014638 0.010060
0.528368 0.047524 0.027353
0.600432 0.030759 0.077064
0.583989 -0.073816 0.025254
0.526247 0.051872 0.041543
0.534254 0.025357 0.068428
0.604537 -0.030481 0.020092
0.571755 0.025584 0.004184
0.538179 -0.024995 0.030318
0.593816 -0.046370 0.010342
0.610866 -0.025390 0.031583
0.536360 -0.002118 0.058514
0.557407 0.048396 0.085079
0.558553 0.059609 0.083802
0.614689 -0.046599 0.041334
0.585942 -0.063364 0.011635
0.569707 0.041696 0.006302
0.575754 0.091803 0.066054
0.599495 0.071140 0.050376
0.560820 0.009366 0.000854
0.567253 -0.031581 0.003204
0.601255 0.054908 0.035489
0.531150 0.004227 0.015878
0.586425 -0.024447 0.007430
0.550366 -0.016510 0.063842
0.541120 0.061627 0.074301
0.556597 -0.041394 0.008735
0.601371 0.067974 0.054044
0.616006 -0.063910 0.028819
0.611248 0.012731 0.059900
0.592084 -0.051941 0.009503
0.553734 0.096141 0.062298
0.584281 0.090094 0.056800
0.592669 0.067364 0.029284
0.577878 0.014622 0.004868
0.589734 0.040884 0.016978
0.575864 0.071118 0.017152
0.539373 0.071590 0.025052
0.561933 0.040087 0.004719
0.599432 0.043800 0.077601
0.564965 0.091574 0.070403
0.528030 0.046802 0.059469
0.546387 0.094184 0.056156
0.601418 0.067565 0.057735
0.603048 0.021059 0.027639
0.590244 0.084416 0.049388
0.600941 0.064303 0.042538
0.535885 0.004982 0.062587
0.600583 -0.017554 0.064247
0.565851 -0.037936 0.059031
0.542043 -0.026850 0.045993
0.540927 0.053877 0.014108
0.525236 0.038584 0.032567
0.603052 -0.007390 0.065833
0.605801 0.041791 0.038391
0.581975 -0.064739 0.045030
0.537519 0.015185 0.007412
0.579785 -0.061016 0.047795
0.597737 0.028982 0.022152
0.538398 0.061901 0.020452
0.576860 0.029002 0.006279
0.533708 0.077205 0.043445
0.575714 0.052561 0.085846
0.561149 0.013660 0.001224
0.552743 0.072530 0.078466
0.565993 -0.041266 0.005706
0.614205 -0.066534 0.036401
0.526698 0.019154 0.051733
0.594558 -0.023589 0.012588
0.607859 0.000420 0.063382
0.586367 -0.059177 0.051102
0.586889 0.086661 0.044439
0.585693 0.083301 0.035392
0.600967 -0.021029 0.018166
0.526795 0.008649 0.032546
0.542274 -0.023812 0.049947
0.596083 -0.003167 0.072491
0.583215 -0.015058 0.005941
0.601514 0.067253 0.058212
0.542741 0.037846 0.078284
0.591240 0.004333 0.077279
0.608017 -0.037208 0.052156
0.592690 0.051865 0.022484
0.564636 0.096710 0.063707
0.610570 -0.013529 0.052216
0.540076 -0.026320 0.041290
0.547120 -0.040384 0.029914
0.559505 -0.050013 0.012005
0.539786 0.024029 0.006969
0.596989 -0.029018 0.062751
0.595848 0.054940 0.078410
0.607932 0.010386 0.066501
0.603432 -0.056427 0.013955
0.582695 0.047765 0.085266
0.586374 0.058827 0.082390
0.556692 -0.053599 0.025442
0.542166 0.008439 0.003668
0.602214 0.048975 0.034208
0.604503 0.047175 0.037989
0.588093 0.086674 0.049203
0.551631 0.009218 0.076785
0.531782 0.032840 0.066396
0.570941 0.038162 0.086961
0.529040 0.026639 0.060678
0.608742 0.023510 0.039032
0.534865 -0.008114 0.050692
0.605046 -0.050423 0.051664
0.526516 0.013707 0.046286
0.594025 -0.064540 0.047713
0.550724 -0.045019 0.034282
0.595577 -0.064619 0.012558
0.584731 0.032891 0.084940
0.575998 0.091699 0.037188
0.560250 -0.031502 0.003888
0.529173 0.018212 0.058042
0.543014 0.005551 0.070231
0.560906 0.086474 0.074524
0.609131 -0.006037 0.033810
0.584466 0.022312 0.009365
0.610146 -0.016176 0.052544
0.533162 0.075508 0.041971
0.531227 0.024074 0.063870
0.555009 0.097291 0.041614
0.535276 0.067956 0.065468
0.552472 0.049545 0.007432
0.606437 -0.071154 0.039649
0.551170 0.073078 0.016941
0.555355 -0.048360 0.015138
0.557488 0.086371 0.024591
0.601767 -0.023839 0.061383
0.595398 0.046047 0.023571
0.606423 -0.006032 0.062724
0.597390 0.068316 0.038225
0.535931 0.080011 0.039108
0.587952 0.025327 0.083245
0.538354 0.076072 0.064953
0.546781 -0.035543 0.014738
0.575787 0.064215 0.083667
0.568963 0.007354 0.080268
0.530930 -0.005586 0.039248
0.565346 -0.005848 0.074901
0.570476 0.096774 0.060875
0.562497 -0.003034 0.075563
0.565751 -0.058207 0.039913
0.566995 0.087087 0.074261
0.598236 -0.058825 0.050875
0.585619 -0.017308 0.070563
0.536435 -0.002106 0.008595
0.528409 0.002420 0.038543
0.551584 0.025693 0.081426
0.598683 0.071782 0.061430
0.589590 0.005856 0.078292
0.614748 -0.040043 0.035144
0.569588 0.016177 0.083032
0.603763 0.000163 0.068161
0.547597 0.095593 0.049458
0.574227 -0.007783 0.074930
0.585750 0.083994 0.068749
0.554083 0.097784 0.058217
0.543924 0.018411 0.003754
0.526763 0.019551 0.052219
0.567204 0.035012 0.086642
0.562531 0.045524 0.086473
0.611806 0.008403 0.056655
0.593486 -0.064083 0.012036
0.545722 -0.021912 0.006297
0.550089 0.097039 0.053116
0.551792 0.058626 0.081549
0.534020 0.075843 0.055055
0.573632 -0.000931 0.002126
0.594920 -0.004303 0.014756
0.554645 -0.021127 0.063859
0.598402 -0.034744 0.060139
0.546002 -0.030304 0.049024
0.589572 -0.072657 0.018264
0.561182 0.099943 0.052270
0.589721 -0.032680 0.063832
0.605183 0.054886 0.064449
0.572025 -0.009184 0.074283
0.604868 0.026887 0.031838
0.570812 -0.062149 0.039767
0.589034 0.078102 0.033683
0.578218 -0.006961 0.003567
0.550644 0.056853 0.010347
0.594085 0.079808 0.058267
0.607263 -0.009316 0.060284
0.540401 -0.013321 0.056166
0.587494 0.083307 0.038526
0.557600 0.084913 0.074788
0.571424 -0.047947 0.054651
0.612615 -0.054969 0.044511
0.533894 0.042363 0.015809
0.545370 0.061645 0.014671
0.552801 0.032805 0.003339
0.608572 -0.050014 0.049328
0.580708 -0.017508 0.004580
0.571448 0.093694 0.037025
0.558776 -0.047170 0.046411
0.604259 0.060052 0.049226
0.525868 0.013183 0.033543
0.574732 0.031716 0.086265
0.553852 0.046704 0.006371
0.561431 -0.021426 0.066828
0.536467 -0.019010 0.041424
0.596185 0.073245 0.066337
0.598671 -0.046427 0.056003
0.548048 -0.034509 0.011529
0.530018 0.022862 0.017660
0.587558 0.059608 0.020189
0.592448 0.069657 0.074598
0.557894 -0.002349 0.074680
0.552579 -0.039854 0.047466
0.589633 0.061199 0.080284
0.612465 -0.055154 0.020705
0.614299 -0.037249 0.036039
0.613153 -0.032730 0.034030
0.570065 0.007592 0.080422
0.529164 0.047742 0.062208
0.611646 -0.008667 0.049727
0.547330 0.066087 0.015507
0.585017 -0.044215 0.007118
0.574671 -0.055668 0.009404
0.545429 -0.018020 0.005152
0.525335 0.038423 0.051564
0.574410 0.077617 0.079441
0.554372 -0.044723 0.012698
0.566912 0.047874 0.007004
0.532798 0.070298 0.058077
0.595337 0.055837 0.026824
0.524228 0.036820 0.040121
0.603043 0.033456 0.030308
0.561459 -0.041344 0.006721
0.550479 -0.031028 0.053686
0.558898 0.087264 0.025295
0.577349 -0.031644 0.064989
0.528424 0.052228 0.058647
0.605240 0.053378 0.044151
0.604258 -0.058442 0.014277
0.548674 0.094463 0.041399
0.605208 0.048456 0.040390
0.531781 -0.003724 0.046637
0.570731 0.005707 0.079824
0.596386 -0.061990 0.011745
0.526726 0.020073 0.024805
0.547152 0.047076 0.080498
0.604659 0.017744 0.029566
0.569592 -0.065294 0.028286
0.540916 -0.029073 0.038136
0.606756 0.042014 0.040877
0.596167 -0.074362 0.036662
0.594676 -0.000975 0.074032
0.547943 0.054396 0.010401
0.552344 -0.018163 0.002395
0.543667 -0.025732 0.050232
0.540705 0.034031 0.076551
0.595613 -0.066812 0.045945
0.578092 0.087873 0.032682
0.557045 0.060299 0.083244
0.549392 -0.041263 0.039822
0.560544 -0.026560 0.002649
0.548109 -0.040566 0.020516
0.564295 -0.032762 0.061587
0.616204 -0.058562 0.037834
0.578722 -0.066872 0.014910
0.606694 -0.006914 0.028741
0.611245 -0.012489 0.038852
0.525939 0.043603 0.032608
0.524776 0.019203 0.039152
0.601799 0.065413 0.047503
0.571723 -0.066989 0.020940
0.585216 0.089636 0.053860
0.553204 0.065041 0.012602
0.553562 -0.026940 0.004225
0.525178 0.016802 0.040242
0.579496 -0.023316 0.068717
0.588188 0.078405 0.032729
0.537110 0.054692 0.072433
0.569197 0.057426 0.085413
0.565799 -0.043876 0.006564
0.616321 -0.050030 0.036110
0.555997 -0.011848 0.000856
0.587193 -0.058332 0.009637
0.563332 0.045587 0.086587
0.537147 -0.021060 0.040108
0.566185 -0.048501 0.051399
0.525847 0.037761 0.053771
0.561706 -0.004871 0.000302
0.576113 -0.067343 0.036234
0.596359 0.066447 0.034408
0.553293 -0.004045 0.072150
0.597929 0.006088 0.074741
0.609375 0.040779 0.059806
0.601716 0.018195 0.025150
0.556412 0.099134 0.054310
0.543767 0.086317 0.064688
0.598460 -0.002850 0.071227
0.601969 0.066698 0.054495
0.589063 0.018722 0.081794
0.530728 0.015400 0.015832
0.569004 0.026501 0.085459
0.545212 0.042155 0.079724
0.578921 0.093411 0.058869
0.590548 0.084257 0.050545
0.571529 -0.033135 0.003515
0.537287 0.018870 0.070162
0.539143 -0.026059 0.037230
0.611298 -0.000793 0.055185
0.611397 -0.063874 0.019626
0.532608 -0.010773 0.024698
0.560249 0.004685 0.078074
0.589442 0.022187 0.013251
0.602208 -0.027142 0.060064
0.609406 0.040174 0.049814
0.539672 0.057648 0.016958
0.575029 -0.042441 0.059222
0.600584 0.068664 0.060070
0.570245 -0.039412 0.059727
0.575979 0.040948 0.008010
0.607586 0.000106 0.063661
0.547655 0.032979 0.080814
0.535789 0.023470 0.010367
0.541353 -0.011484 0.058744
0.583055 -0.030075 0.065759
0.592492 -0.061930 0.049580
0.610888 0.032568 0.053093
0.540177 0.046618 0.011577
0.559082 -0.033275 0.058689
0.541033 0.074018 0.024769
0.606878 -0.066581 0.043899
0.572489 0.015806 0.003152
0.580586 0.082448 0.074474
0.544036 -0.012186 0.004461
0.582436 0.060651 0.016394
0.602142 0.059092 0.068610
0.597339 0.027067 0.021348
0.524105 0.030616 0.043542
0.536600 0.019595 0.069663
0.596160 -0.068499 0.044501
0.539290 -0.008617 0.007107
0.540442 0.020861 0.006022
0.560218 0.037982 0.004186
0.536070 -0.006898 0.010328
0.553485 0.030162 0.082945
0.566904 0.032144 0.086268
0.540371 0.082768 0.062802
0.572080 0.072197 0.016264
0.587282 0.011520 0.080544
0.601920 -0.061394 0.048698
0.540655 0.075959 0.026512
0.580520 -0.062002 0.047176
0.556020 0.019222 0.001590
0.546367 0.094174 0.056128
0.612624 -0.027438 0.036622
0.609672 -0.036010 0.024753
0.593932 -0.000835 0.014246
0.580519 0.019449 0.083592
0.607302 -0.007674 0.060888
0.564578 0.051133 0.007435
0.602866 -0.068188 0.016540
0.596256 0.070098 0.069655
0.606319 0.035331 0.070282
0.539938 -0.014399 0.054677
0.561883 0.064437 0.083404
0.602214 0.017408 0.025707
0.587623 -0.070137 0.015915
0.611370 0.006254 0.057867
0.524626 0.041689 0.043326
0.604114 0.055306 0.067340
0.543335 -0.034250 0.028184
0.580338 0.049559 0.011877
0.528907 0.046819 0.061757
0.554650 0.028039 0.083006
0.583966 -0.033581 0.064192
0.536394 0.080109 0.056902
0.580894 -0.008662 0.004821
0.599678 0.070393 0.060201
0.607913 -0.049006 0.050073
0.564244 -0.042983 0.054678
0.532154 0.050132 0.021584
0.589753 -0.057463 0.009599
0.532943 0.066570 0.031297
0.608228 0.008046 0.034433
0.538697 0.063160 0.020839
0.556324 0.083688 0.022350
0.586428 0.000346 0.077149
0.549623 0.054713 0.009912
0.580951 0.064321 0.016771
0.528604 0.030689 0.060615
0.592437 -0.055258 0.053556
0.560235 0.089596 0.072164
0.559415 -0.056426 0.021378
0.583345 -0.031239 0.005851
0.559051 -0.017985 0.001266
0.605204 0.017878 0.071386
0.592711 0.076986 0.039052
0.601705 -0.011716 0.065370
0.602754 -0.013847 0.021462
0.550406 0.049903 0.082000
0.563187 -0.059129 0.017601
0.609279 -0.017220 0.031344
0.526319 0.010575 0.038410
0.597371 0.029928 0.021922
0.587519 -0.009762 0.008896
0.529665 0.000465 0.023483
0.576714 -0.059634 0.047635
0.571634 -0.019194 0.070075
0.542228 -0.031915 0.024389
0.534556 -0.013488 0.043376
0.601643 0.065821 0.047631
0.611923 0.007552 0.055710
0.567614 -0.048445 0.007815
0.605660 -0.027081 0.022253
0.549639 0.049341 0.008035
0.535369 -0.001383 0.057421
0.594953 0.030977 0.019591
0.559103 -0.043238 0.008364
0.527427 0.057239 0.042062
0.564431 0.084856 0.023050
0.535243 0.065113 0.026240
0.560705 -0.001007 0.000324
0.583105 -0.004632 0.006249
0.532523 -0.011305 0.028219
0.535695 0.013243 0.066428
0.574981 0.096754 0.053011
0.564385 -0.029410 0.063550
0.547842 0.094488 0.042981
0.584237 -0.008728 0.074075
0.571153 -0.031055 0.064504
0.531680 0.071794 0.042133
0.555453 0.002553 0.000478
0.611150 0.024372 0.047540
0.529457 0.065496 0.046928
0.544999 0.049989 0.010009
0.608486 -0.042346 0.021081
0.540921 0.086451 0.059790
0.596099 -0.033318 0.061663
0.528643 0.061943 0.049395
0.546773 -0.032635 0.047604
0.590344 0.052049 0.082272
0.586401 -0.067554 0.014083
0.579689 -0.059206 0.010232
0.539496 -0.017109 0.051730
0.528922 0.027475 0.060636
0.577453 0.063324 0.083641
0.576455 -0.013958 0.072497
0.569907 -0.007201 0.001071
0.573358 0.040140 0.086930
0.556796 0.032718 0.003152
0.599416 -0.021336 0.016634
0.605548 0.023479 0.071563
0.610071 -0.008053 0.055720
0.580207 0.083492 0.028926
0.527283 0.013836 0.024403
0.601847 0.043456 0.075261
0.594045 0.079914 0.050883
0.529278 0.000955 0.042277
0.598454 0.046457 0.027373
0.537347 0.082532 0.056194
0.611994 -0.068595 0.037691
0.612100 0.006635 0.046949
0.593798 0.034241 0.019119
0.604852 -0.011223 0.024894
0.567755 -0.046419 0.054025
0.551493 0.088294 0.028625
0.548279 0.008517 0.074867
0.583704 0.018131 0.082885
0.526430 0.034006 0.055771
0.549843 -0.024025 0.058544
0.610201 -0.037051 0.049341
0.528330 0.019682 0.020667
0.593154 0.040037 0.019771
0.614650 -0.040616 0.039135
0.612339 -0.031155 0.044801
0.590681 -0.040964 0.009138
0.562033 -0.056208 0.037670
0.530794 0.066537 0.037340
0.569517 -0.063477 0.035028
0.569515 0.086693 0.074306
0.584403 0.038287 0.012033
0.580534 0.047529 0.085748
0.527267 0.055957 0.040346
0.609200 0.015399 0.065361
0.572496 0.096885 0.058623
0.600390 0.048483 0.030894
