ply
format ascii 1.0
element vertex 1024
property float x
property float y
property float z
end_header
0.607901 0.033799 0.042128
0.554132 0.004556 0.078032
0.602914 -0.037960 0.062142
0.598512 0.041864 0.079826
0.591043 -0.017095 0.012221
0.578178 0.089093 0.038460
0.532951 0.046706 0.020641
0.555405 0.050007 0.085482
0.555064 -0.044269 0.045850
0.552761 0.096577 0.059241
0.601842 -0.039624 0.017679
0.616115 -0.068330 0.042718
0.532411 0.075701 0.045233
0.574950 -0.019226 0.004542
0.579331 -0.051882 0.057956
0.571416 0.002404 0.081045
0.576901 0.039005 0.088043
0.534242 -0.009194 0.022533
0.612342 0.020335 0.057738
0.526864 0.035972 0.028463
0.563719 0.046372 0.087766
0.582084 -0.060989 0.051904
0.553524 0.009674 0.002824
0.526614 0.054660 0.046080
0.545165 0.083423 0.028608
0.594300 -0.075732 0.028342
0.588409 -0.074065 0.033608
0.526587 0.045172 0.033398
0.598996 0.011779 0.078377
0.602376 -0.072009 0.045674
0.566016 0.005553 0.002933
0.612548 -0.024676 0.054237
0.585098 -0.072606 0.025015
0.599522 -0.013410 0.019027
0.539697 -0.019874 0.048994
0.608531 0.041360 0.049415
0.577716 -0.015197 0.074957
0.598008 -0.033913 0.015685
0.549783 0.029406 0.004993
0.615974 -0.032859 0.037659
0.545539 0.021796 0.079005
0.612065 0.019364 0.049777
0.565307 0.027639 0.087004
0.560994 -0.050478 0.016530
0.545079 0.002037 0.071863
0.532090 0.006172 0.057636
0.589907 0.050811 0.021257
0.606206 0.040682 0.041073
0.602204 -0.019735 0.067126
0.554274 0.073377 0.016959
0.573397 -0.059146 0.048177
0.561645 -0.000645 0.078527
0.548975 -0.020044 0.062187
0.604765 0.054084 0.065484
0.563701 -0.001096 0.078801
0.546156 -0.027333 0.012874
0.594355 0.073729 0.042264
0.538593 0.032523 0.075967
0.605160 0.001936 0.071082
0.596750 0.072337 0.047352
0.591880 -0.055308 0.013147
0.617045 -0.069457 0.037013
0.598816 0.058916 0.074113
0.556854 0.051285 0.085817
0.544211 0.016198 0.076556
0.603087 0.002498 0.025165
0.541831 0.090220 0.056764
0.595818 -0.056839 0.014147
0.527802 0.049734 0.032292
0.604944 0.053584 0.047239
0.526894 0.015471 0.049589
0.542141 -0.010340 0.061758
0.536074 0.059220 0.022724
0.553542 -0.003219 0.002807
0.560673 -0.033557 0.007418
0.581065 0.064406 0.018503
0.615378 -0.028941 0.046552
0.603579 0.055100 0.068236
0.545651 0.072687 0.075266
0.542825 0.067469 0.020102
0.545745 0.036696 0.007493
0.592561 -0.075371 0.027657
0.551089 -0.025021 0.060557
0.598937 -0.033481 0.065219
0.539961 0.088245 0.044393
0.604178 -0.074966 0.039466
0.547798 0.038548 0.082486
0.610835 0.028517 0.062761
0.593817 -0.049174 0.060913
0.613092 0.001864 0.047548
0.560755 0.098909 0.049965
0.612922 -0.008898 0.042675
0.527643 0.007894 0.036094
0.575401 -0.013313 0.075578
0.563509 0.031151 0.004850
0.539266 0.068499 0.023875
0.549634 0.096337 0.047827
0.540457 0.015389 0.008054
0.605956 0.022137 0.033928
0.545382 0.059227 0.078908
0.543122 0.042547 0.079606
0.536430 0.058577 0.021980
0.593941 -0.013433 0.073316
0.570502 -0.059395 0.044850
0.602496 -0.016231 0.021482
0.618791 -0.067091 0.035471
0.565460 0.091621 0.069264
0.598704 -0.042036 0.015476
0.584996 0.065434 0.021967
0.563892 0.098719 0.050269
0.547126 0.042786 0.082013
0.602412 0.054838 0.040747
0.583833 0.044457 0.086625
0.600666 -0.053902 0.057866
0.548586 -0.037792 0.042784
0.606865 0.050483 0.059565
0.542462 -0.009246 0.062935
0.552869 0.007180 0.078436
0.566688 -0.026826 0.068325
0.572079 -0.010779 0.003538
0.613422 -0.000545 0.050255
0.579554 -0.061640 0.049866
0.531488 0.014831 0.062030
0.577602 -0.027162 0.005920
0.563616 -0.056901 0.021289
0.602601 0.051818 0.039023
0.588343 -0.033434 0.067733
0.551759 -0.040259 0.018142
0.557590 -0.024356 0.005250
0.581583 0.090204 0.048455
0.593576 0.078536 0.056527
0.552950 -0.006606 0.072756
0.525730 0.025326 0.051730
0.600644 -0.064791 0.052243
0.574452 -0.053409 0.054687
0.560807 0.037362 0.087424
0.548620 -0.032934 0.050605
0.557444 0.029439 0.004168
0.534587 0.072054 0.062886
0.531535 0.050763 0.067706
0.567916 0.067422 0.083874
0.585663 -0.033746 0.067773
0.563260 0.096560 0.041611
0.613428 -0.012204 0.051282
0.587536 0.073708 0.029967
0.566983 0.020223 0.085738
0.547395 0.063339 0.079264
0.587740 0.084192 0.046641
0.560508 0.095813 0.063931
0.564434 -0.003129 0.002535
0.602692 -0.041470 0.061304
0.567834 0.089691 0.031304
0.594554 0.075166 0.064500
0.556787 0.091323 0.069587
0.558749 0.020285 0.084250
0.544933 0.055748 0.079229
0.583517 0.021224 0.009881
0.582815 0.087736 0.043273
0.583517 -0.047550 0.010392
0.529664 0.049340 0.027412
0.547397 -0.036570 0.024115
0.592568 -0.053481 0.059031
0.603153 -0.022868 0.065677
0.530209 -0.001084 0.037558
0.604468 -0.057707 0.055371
0.542157 -0.014554 0.058589
0.604440 0.056855 0.050001
0.573787 -0.020741 0.072534
0.531828 0.003279 0.019854
0.573146 0.002194 0.003960
0.570461 -0.009890 0.076464
0.559782 0.090109 0.030199
0.586964 -0.037094 0.066376
0.556679 -0.013880 0.003360
0.602970 0.057708 0.067041
0.545008 -0.033378 0.040321
0.570806 -0.012396 0.003383
0.558270 0.011804 0.002765
0.571842 0.096533 0.051954
0.589039 0.071870 0.030347
0.565276 -0.042980 0.009879
0.573705 0.067613 0.083663
0.594332 0.063371 0.076429
0.610545 -0.020322 0.031646
0.587653 0.017481 0.012306
0.606497 0.014872 0.072428
0.577635 0.081767 0.027461
0.532607 0.017617 0.065152
0.558473 -0.017507 0.003685
0.528938 0.014935 0.023585
0.564272 0.092365 0.068551
0.582930 -0.035215 0.067147
0.603842 0.059766 0.054181
0.585783 -0.069343 0.043880
0.578669 0.018968 0.007187
0.530908 0.061643 0.062278
0.542912 0.061760 0.017503
0.589404 0.010938 0.082324
0.566418 0.072893 0.016583
0.593751 0.076908 0.063029
0.584532 0.083166 0.037150
0.542174 0.024180 0.007714
0.526603 0.015325 0.031893
0.536572 0.049936 0.073802
0.606842 0.010346 0.071363
0.594606 -0.023969 0.014187
0.525247 0.034942 0.052010
0.577707 -0.067661 0.021408
0.612301 -0.073039 0.037338
0.558763 -0.011564 0.073076
0.576367 -0.058192 0.051468
0.599798 0.057471 0.036948
0.569345 -0.052632 0.051986
0.586819 0.014392 0.083732
0.603586 0.054750 0.068555
0.540089 0.075047 0.026830
0.603604 -0.060787 0.054192
0.536266 -0.014071 0.046747
0.578698 0.086841 0.069768
0.597972 -0.039213 0.015258
0.569804 -0.058905 0.044771
0.598188 0.071634 0.055720
0.559849 -0.037580 0.009227
0.552350 0.087319 0.028299
0.613298 -0.017090 0.040318
0.590004 -0.028896 0.010982
0.536273 -0.011312 0.017782
0.606750 0.011883 0.032853
0.527885 0.011210 0.049300
0.609237 0.021920 0.040934
0.605190 -0.038578 0.060694
0.577092 0.093746 0.051241
0.591760 0.066076 0.077177
0.528239 0.019656 0.024465
0.565681 -0.036946 0.062148
0.602684 -0.060822 0.016734
0.554664 0.071744 0.080217
0.583916 -0.070596 0.039181
0.527775 0.015640 0.026687
0.579230 -0.037415 0.065850
0.569016 0.046390 0.008438
0.579769 0.087926 0.067083
0.527080 0.012118 0.046120
0.589678 0.012432 0.013304
0.585660 0.037954 0.086498
0.614396 -0.020823 0.045603
0.597112 0.005255 0.018896
0.563014 0.003936 0.002575
0.573880 -0.014246 0.004014
0.579678 -0.044515 0.009325
0.586544 -0.065884 0.017314
0.599718 0.028951 0.079549
0.620075 -0.060562 0.041948
0.537250 0.072631 0.067041
0.563162 0.094278 0.066144
0.525890 0.038114 0.054990
0.584497 0.078567 0.030877
0.599679 0.068195 0.050462
0.616969 -0.066053 0.044075
0.573227 0.042946 0.008888
0.593294 0.043496 0.083168
0.557353 -0.048760 0.019837
0.558112 0.078402 0.019315
0.528423 0.057977 0.036857
0.531251 -0.001060 0.025502
0.567206 0.041408 0.088303
0.599492 -0.006860 0.019784
0.608657 0.026423 0.069343
0.607057 0.031703 0.039174
0.599099 -0.045837 0.015404
0.563599 -0.058118 0.032696
0.595906 0.072935 0.045455
0.597605 0.072581 0.054705
0.529123 0.039874 0.064064
0.550707 0.069656 0.016405
0.577653 -0.012723 0.075883
0.615981 -0.057906 0.049082
0.619816 -0.048778 0.039180
0.552174 -0.005205 0.003157
0.611300 -0.016037 0.057651
0.593440 0.078493 0.051789
0.550440 0.016330 0.003640
0.574082 0.085712 0.029384
0.608723 -0.047229 0.021303
0.573476 0.037250 0.088283
0.528879 0.009995 0.051959
0.598808 0.039205 0.027366
0.586299 0.008309 0.010336
0.568452 0.094116 0.039027
0.604284 0.053453 0.044669
0.530275 0.041595 0.022742
0.577843 -0.068473 0.034992
0.596059 -0.001963 0.076204
0.544828 -0.007121 0.066771
0.557954 0.092396 0.033391
0.589980 0.048034 0.084235
0.563105 -0.020665 0.003861
0.586668 0.075973 0.075037
0.533014 0.066293 0.063910
0.564433 -0.055269 0.043306
0.609135 -0.046458 0.056530
0.612504 -0.022554 0.054334
0.549954 -0.037197 0.017362
0.552472 -0.044278 0.039006
0.600868 -0.058378 0.055854
0.620095 -0.050271 0.038781
0.575778 0.024684 0.086914
0.618968 -0.058190 0.028783
0.619985 -0.053472 0.033522
0.567211 0.090143 0.070683
0.547449 0.074608 0.075688
0.564596 0.098059 0.046802
0.599655 0.059193 0.037912
0.582476 0.081304 0.073691
0.567468 0.054380 0.010002
0.540417 0.071706 0.071345
0.533555 0.073489 0.059113
0.610375 0.033406 0.051312
0.586787 0.072244 0.027793
0.593285 -0.069497 0.019554
0.601994 0.026794 0.077650
0.527478 0.013158 0.029110
0.563020 0.096988 0.042590
0.610436 0.031116 0.049484
0.610935 -0.027509 0.029581
0.526288 0.052419 0.048782
0.533029 0.010423 0.062436
0.591347 -0.037764 0.065766
0.537818 0.083881 0.039885
0.544257 0.059618 0.015693
0.594766 -0.027577 0.014028
0.530443 0.038529 0.066428
0.547752 -0.038368 0.032305
0.574664 -0.019160 0.073266
0.611861 -0.054243 0.053187
0.529176 0.035942 0.063742
0.580126 -0.057611 0.013574
0.543605 0.044210 0.010412
0.528307 0.009204 0.048660
0.565679 0.097589 0.045834
0.615255 -0.044350 0.050755
0.550323 -0.029261 0.056432
0.526065 0.044565 0.035273
0.546161 0.015138 0.077496
0.611829 -0.040435 0.054977
0.611099 -0.040975 0.025133
0.575303 0.014901 0.005535
0.592944 0.015358 0.016472
0.608494 -0.044817 0.057268
0.566166 0.024973 0.004496
0.578662 -0.002638 0.005490
0.524392 0.029731 0.043238
0.572735 0.094000 0.061864
0.553840 -0.046200 0.025404
0.572422 -0.017342 0.073754
0.539442 0.050483 0.015423
0.565821 0.087382 0.027688
0.586088 -0.071271 0.040132
0.617095 -0.035838 0.042339
0.540314 0.016427 0.008268
0.568800 0.092425 0.067205
0.530918 0.064638 0.059964
0.561194 0.045077 0.007090
0.597151 -0.026120 0.015764
0.552795 0.003136 0.076921
0.559924 0.087094 0.026650
0.599810 0.038811 0.028601
0.596556 -0.042707 0.062984
0.534936 0.015105 0.013393
0.529838 0.048761 0.026735
0.568053 0.027265 0.087217
0.528734 0.061362 0.039114
0.608470 0.043778 0.060918
0.572838 0.093257 0.063365
0.530950 0.019961 0.063271
0.588433 0.073087 0.030597
0.563124 0.046398 0.007503
0.589758 -0.040441 0.064882
0.610767 -0.041131 0.024756
0.614188 -0.021224 0.041375
0.541232 0.089835 0.055760
0.587641 -0.070413 0.043404
0.526625 0.022473 0.053890
0.572425 -0.032340 0.067119
0.559038 -0.010034 0.073879
0.535971 -0.015297 0.025047
0.563947 -0.013192 0.073954
0.537402 0.045585 0.075091
0.536703 0.021686 0.071733
0.611463 -0.070057 0.045314
0.594961 0.075436 0.048030
0.574073 0.090554 0.036729
0.580473 -0.045376 0.062083
0.555937 0.007289 0.002574
0.613229 -0.027335 0.033807
0.530958 0.060442 0.063137
0.524528 0.036823 0.041325
0.546582 -0.036605 0.033103
0.543226 0.090375 0.041434
0.544882 0.091089 0.040036
0.577557 0.089670 0.066048
0.589609 0.080070 0.066920
0.607202 0.014929 0.034460
0.536021 0.062407 0.070380
0.563300 0.016347 0.003347
0.572433 -0.027527 0.005250
0.613275 0.002217 0.054011
0.606480 0.025290 0.072838
0.615660 -0.028596 0.042415
0.590253 -0.033667 0.067427
0.546916 0.089377 0.034390
0.607392 0.047156 0.062709
0.530219 0.006731 0.022871
0.535918 0.082502 0.053696
0.544084 0.083942 0.030138
0.563348 -0.015835 0.072628
0.573846 -0.052949 0.054730
0.535946 -0.002752 0.013545
0.551134 0.066229 0.080521
0.603679 -0.026324 0.064486
0.599460 0.028518 0.079744
0.566386 0.086618 0.026967
0.541552 0.054080 0.015267
0.551094 0.086652 0.028121
0.570327 0.092490 0.037242
0.589234 -0.022373 0.071619
0.527709 0.017366 0.054404
0.594152 0.045039 0.023675
0.525790 0.027485 0.052923
0.553756 0.016346 0.081646
0.568194 0.013275 0.003732
0.610757 -0.003934 0.061740
0.529321 0.029037 0.021867
0.588389 -0.049394 0.060949
0.576919 -0.034047 0.067116
0.587490 -0.058988 0.055310
0.542922 -0.015447 0.009610
0.571768 0.006768 0.082452
0.552274 0.058293 0.082921
0.548761 -0.002699 0.072178
0.572754 -0.047632 0.010345
0.597934 -0.035908 0.015495
0.563325 0.009628 0.082369
0.531277 0.020028 0.063868
0.589762 0.022623 0.014827
0.617944 -0.065687 0.029208
0.549967 0.030229 0.083010
0.607536 0.048075 0.053524
0.540477 0.087857 0.058541
0.530178 0.006625 0.052896
0.607825 0.047427 0.056008
0.576690 0.056806 0.013445
0.589128 -0.006622 0.011425
0.580705 0.049761 0.013551
0.558899 0.061522 0.084339
0.525644 0.044507 0.037542
0.580549 0.004752 0.006711
0.614554 -0.022047 0.043934
0.562170 -0.032595 0.063155
0.527139 0.016100 0.028789
0.605348 0.052100 0.047045
0.565720 0.094545 0.065086
0.544287 0.093065 0.054348
0.538173 0.071260 0.026630
0.539693 0.041593 0.077265
0.602417 0.052999 0.072334
0.539090 0.002208 0.008815
0.527962 0.061189 0.047373
0.574374 -0.010612 0.076546
0.530278 0.033518 0.020680
0.527077 0.011232 0.033724
0.606834 0.040397 0.069537
0.578849 0.085912 0.033716
0.550373 0.053656 0.082778
0.582224 -0.042702 0.009197
0.610784 -0.040394 0.056038
0.611984 0.022635 0.059369
0.546230 0.069338 0.076862
0.594627 -0.075605 0.035662
0.551523 0.088574 0.030134
0.591648 -0.038233 0.065550
0.601235 0.065875 0.055252
0.554858 0.019495 0.082862
0.601199 -0.057714 0.015840
0.590816 -0.054884 0.012898
0.588935 0.015500 0.083466
0.574351 0.030718 0.087801
0.599288 0.019038 0.079318
0.529410 0.002380 0.042619
0.537767 -0.020389 0.039476
0.549896 0.004044 0.075831
0.604360 0.015681 0.074789
0.561733 -0.046096 0.052023
0.585295 0.037428 0.086596
0.618874 -0.049949 0.045085
0.590133 -0.021849 0.011335
0.577957 0.076416 0.079386
0.581534 0.035532 0.087384
0.597472 -0.016659 0.016950
0.578969 0.085958 0.033919
0.528885 0.052802 0.031287
0.592151 0.043989 0.083715
0.538326 -0.001782 0.062867
0.602698 -0.028477 0.064651
0.554869 0.017575 0.003180
0.600928 -0.041020 0.062177
0.547703 -0.012044 0.066247
0.562145 0.023980 0.003875
0.601140 -0.070933 0.021593
0.529844 0.067346 0.052080
0.540191 -0.015143 0.012661
0.572610 -0.022567 0.071624
0.561807 0.090920 0.070432
0.553123 -0.004836 0.073679
0.563037 0.090732 0.070587
0.558245 -0.028705 0.063372
0.614295 -0.028629 0.035597
0.544339 -0.014077 0.007935
0.611092 -0.030025 0.056523
0.603738 0.059930 0.053539
0.596487 0.050965 0.028347
0.536194 0.083202 0.053094
0.587811 0.053640 0.020186
0.554076 -0.047287 0.030841
0.543191 0.075368 0.024027
0.569330 0.063705 0.013290
0.601276 -0.016919 0.068489
0.575790 -0.028310 0.005756
0.618169 -0.044809 0.034569
0.539750 0.066238 0.072870
0.553418 -0.044905 0.040713
0.588113 0.067597 0.079042
0.572226 -0.063959 0.020643
0.611139 -0.031696 0.028325
0.601027 0.054608 0.073655
0.546235 0.073758 0.075248
0.588589 0.083826 0.060152
0.606519 0.045388 0.067843
0.558116 0.007424 0.002555
0.616727 -0.053204 0.048940
0.592732 -0.015585 0.013521
0.528662 0.044657 0.027169
0.599569 0.031827 0.079639
0.588707 -0.074538 0.030053
0.525906 0.049273 0.041164
0.533961 0.023749 0.068978
0.607825 -0.030609 0.024444
0.573577 0.023783 0.006016
0.541004 -0.027350 0.032339
0.598025 -0.047123 0.014764
0.613572 -0.025003 0.036001
0.537400 -0.003865 0.059856
0.555684 0.048042 0.085776
0.556463 0.059254 0.084246
0.617834 -0.045806 0.046420
0.590737 -0.064362 0.016239
0.570873 0.039855 0.007645
0.573068 0.091617 0.066241
0.598063 0.071472 0.051894
0.563359 0.007091 0.002751
0.571197 -0.033517 0.006375
0.600915 0.054954 0.037500
0.533406 0.001223 0.016922
0.589943 -0.025570 0.011041
0.551734 -0.017589 0.066013
0.539298 0.060384 0.074128
0.560725 -0.043580 0.011806
0.599928 0.068471 0.055702
0.620203 -0.063360 0.034409
0.611608 0.013796 0.063314
0.596527 -0.052775 0.014014
0.551044 0.095037 0.061652
0.581960 0.089999 0.057320
0.592095 0.066923 0.030694
0.580069 0.013078 0.007185
0.590544 0.040055 0.018991
0.575584 0.069746 0.017923
0.538854 0.069053 0.024606
0.563221 0.037919 0.005850
0.598077 0.044831 0.079804
0.562154 0.091094 0.070238
0.527266 0.044719 0.059265
0.543986 0.092655 0.055326
0.599865 0.068155 0.059403
0.604205 0.021011 0.030595
0.588373 0.084365 0.050258
0.600021 0.064502 0.044287
0.536530 0.003311 0.063725
0.601913 -0.016749 0.068095
0.568143 -0.038535 0.062272
0.544401 -0.028671 0.048176
0.541421 0.051145 0.014184
0.525684 0.035738 0.032508
0.603955 -0.006464 0.069495
0.605835 0.042091 0.040890
0.585696 -0.065056 0.049510
0.539654 0.012198 0.008387
0.583281 -0.061350 0.052104
0.598797 0.028592 0.024733
0.538389 0.059223 0.020230
0.578481 0.027440 0.008187
0.532370 0.074906 0.042650
0.573790 0.052903 0.087035
0.563519 0.011402 0.003021
0.550369 0.071814 0.078387
0.570208 -0.043177 0.009085
0.618244 -0.065861 0.041994
0.527204 0.016857 0.052210
0.597861 -0.024282 0.016440
0.608555 0.001457 0.067001
0.589676 -0.059186 0.055576
0.585107 0.086360 0.045144
0.584340 0.082735 0.036153
0.603979 -0.021347 0.022156
0.528332 0.005891 0.033316
0.544387 -0.025529 0.052054
0.596616 -0.002340 0.075809
0.586445 -0.016347 0.009204
0.599957 0.067858 0.059890
0.541649 0.036787 0.078779
0.591344 0.005091 0.080239
0.610462 -0.036405 0.056769
0.592911 0.051271 0.024304
0.561865 0.096047 0.063404
0.612147 -0.012653 0.056297
0.542576 -0.028331 0.043399
0.550508 -0.042400 0.032629
0.563834 -0.052001 0.015393
0.541611 0.021107 0.007789
0.598792 -0.028372 0.066780
0.594064 0.055847 0.080205
0.608159 0.011493 0.069861
0.607874 -0.056723 0.018950
0.580957 0.048359 0.086809
0.584326 0.059476 0.083769
0.560701 -0.055356 0.028819
0.544667 0.005539 0.004974
0.602133 0.049030 0.036406
0.604356 0.047411 0.040305
0.586148 0.086536 0.049944
0.551622 0.008481 0.078317
0.531288 0.031082 0.066672
0.569510 0.038369 0.088366
0.528968 0.024644 0.061030
0.609417 0.023954 0.042101
0.536390 -0.010104 0.052147
0.607993 -0.049730 0.056523
0.527405 0.011274 0.046904
0.597634 -0.064342 0.052581
0.554129 -0.046788 0.037233
0.600375 -0.065234 0.017510
0.583543 0.033567 0.086937
0.574290 0.090807 0.037411
0.564177 -0.033682 0.006826
0.529497 0.016165 0.058620
0.543371 0.004335 0.071581
0.558147 0.085950 0.074355
0.611059 -0.005679 0.037665
0.586216 0.021117 0.011695
0.611810 -0.015306 0.056680
0.531936 0.073154 0.041204
0.531139 0.022242 0.064357
0.552975 0.095721 0.040999
0.533530 0.066270 0.064946
0.553336 0.047081 0.008004
0.610544 -0.070686 0.045104
0.550856 0.070778 0.016850
0.559522 -0.050427 0.018344
0.556423 0.084483 0.024356
0.603421 -0.023054 0.065435
0.595790 0.045587 0.025630
0.607377 -0.005059 0.066465
0.596473 0.068272 0.039758
0.534634 0.077685 0.038317
0.587093 0.026089 0.085546
0.536325 0.074480 0.064322
0.550506 -0.037952 0.017330
0.573512 0.064495 0.084557
0.568883 0.007352 0.082415
0.532755 -0.008010 0.040519
0.565933 -0.006105 0.077278
0.567790 0.096258 0.060764
0.562962 -0.003383 0.077772
0.569428 -0.059263 0.043695
0.564215 0.086783 0.074276
0.601525 -0.058397 0.055730
0.586745 -0.016905 0.073907
0.539161 -0.005087 0.009983
0.529969 -0.000123 0.039524
0.550818 0.025053 0.082525
0.596854 0.072357 0.062895
0.589606 0.006576 0.081157
0.617863 -0.039408 0.040066
0.569092 0.016258 0.084968
0.604311 0.001166 0.071649
0.545369 0.093943 0.048637
0.574873 -0.007705 0.077649
0.583246 0.084255 0.069465
0.551471 0.096590 0.057543
0.546057 0.015569 0.004858
0.527238 0.017268 0.052688
0.565903 0.035074 0.088006
0.560858 0.045398 0.087411
0.612432 0.009413 0.060202
0.598284 -0.064789 0.016906
0.549236 -0.024583 0.008507
0.547681 0.095571 0.052335
0.549822 0.057964 0.081799
0.532339 0.073845 0.054296
0.576488 -0.002686 0.004710
0.597446 -0.004948 0.018116
0.556176 -0.022041 0.066290
0.600500 -0.034104 0.064365
0.548378 -0.031898 0.051424
0.594477 -0.073346 0.023222
0.558684 0.098865 0.051779
0.591630 -0.032275 0.067716
0.603861 0.055796 0.066564
0.572747 -0.009203 0.076966
0.605668 0.027004 0.034699
0.574631 -0.063015 0.043817
0.587925 0.077624 0.034691
0.581239 -0.008504 0.006458
0.551145 0.054387 0.010667
0.592077 0.080125 0.059374
0.608418 -0.008369 0.064139
0.541924 -0.014964 0.057934
0.586033 0.082886 0.039344
0.554893 0.084274 0.074551
0.574222 -0.048436 0.058339
0.615960 -0.054166 0.049743
0.534759 0.039422 0.015951
0.545556 0.059084 0.014690
0.554413 0.030270 0.004362
0.611580 -0.049248 0.054295
0.584076 -0.018922 0.007825
0.569680 0.092627 0.037047
0.561839 -0.048336 0.049671
0.603264 0.060545 0.051189
0.527208 0.010411 0.034165
0.573554 0.032053 0.087963
0.554853 0.044269 0.007064
0.562864 -0.022013 0.069488
0.538700 -0.021160 0.043224
0.594141 0.073846 0.067678
0.601334 -0.045868 0.060545
0.551841 -0.036952 0.014138
0.531536 0.019842 0.018180
0.587580 0.058759 0.021642
0.590260 0.070328 0.075902
0.558370 -0.002893 0.076721
0.555348 -0.041232 0.050331
0.587565 0.061914 0.081710
0.616621 -0.054946 0.025958
0.617283 -0.036611 0.040874
0.616041 -0.032189 0.038711
0.569970 0.007634 0.082599
0.528271 0.045768 0.062014
0.613129 -0.007818 0.053719
0.547324 0.063615 0.015474
0.589268 -0.045379 0.011197
0.579274 -0.057149 0.013440
0.548841 -0.020734 0.007252
0.525146 0.036052 0.051496
0.571791 0.077727 0.079941
0.558491 -0.046891 0.015779
0.567833 0.045940 0.008094
0.531218 0.068335 0.057419
0.595263 0.055446 0.028624
0.524485 0.034126 0.040069
0.603658 0.033461 0.032940
0.565648 -0.043399 0.009952
0.552719 -0.032339 0.056247
0.557775 0.085445 0.025082
0.579196 -0.031672 0.068439
0.527489 0.050133 0.058315
0.604658 0.053788 0.046325
0.608762 -0.058697 0.019352
0.546758 0.092654 0.040650
0.604932 0.048776 0.042693
0.533286 -0.005935 0.047880
0.570724 0.005762 0.082073
0.601114 -0.062597 0.016656
0.528108 0.017109 0.025283
0.545644 0.046227 0.080896
0.605869 0.017807 0.032660
0.573915 -0.066487 0.032389
0.543621 -0.031128 0.040347
0.606697 0.042410 0.043399
0.600505 -0.074348 0.041865
0.595079 -0.000164 0.077246
0.548535 0.051833 0.010697
0.555845 -0.020688 0.004729
0.545839 -0.027388 0.052435
0.539814 0.032856 0.077080
0.599362 -0.066596 0.050926
0.576674 0.086952 0.033077
0.554950 0.059873 0.083621
0.552474 -0.042947 0.042626
0.564332 -0.028765 0.005470
0.551819 -0.042777 0.023277
0.566314 -0.033360 0.064641
0.619902 -0.057787 0.043284
0.583542 -0.068054 0.019365
0.608828 -0.006771 0.032543
0.613236 -0.011921 0.042940
0.526201 0.040780 0.032442
0.525708 0.016523 0.039576
0.600669 0.065765 0.049248
0.576353 -0.068283 0.025163
0.583009 0.089503 0.054424
0.553327 0.062718 0.012791
0.557319 -0.029366 0.006825
0.526160 0.014166 0.040741
0.580911 -0.023181 0.072018
0.587101 0.077871 0.033702
0.535609 0.053261 0.072310
0.567118 0.057510 0.086261
0.570080 -0.045771 0.010004
0.619766 -0.049302 0.041343
0.559316 -0.014281 0.003147
0.591870 -0.059338 0.014153
0.561653 0.045493 0.087550
0.539499 -0.023215 0.041984
0.569120 -0.049266 0.054933
0.525608 0.035464 0.053735
0.564782 -0.007112 0.002599
0.580234 -0.068094 0.040597
0.595641 0.066271 0.035958
0.553922 -0.004821 0.074086
0.598046 0.007031 0.077877
0.608719 0.041743 0.062429
0.603063 0.018039 0.028139
0.553879 0.097929 0.053682
0.541367 0.084910 0.063969
0.599021 -0.001965 0.074616
0.600556 0.067229 0.056205
0.588492 0.019496 0.084304
0.532578 0.012368 0.016571
0.568052 0.026610 0.087105
0.543912 0.041219 0.080187
0.576416 0.093164 0.059125
0.588643 0.084246 0.051428
0.575514 -0.034902 0.006867
0.537168 0.017425 0.070979
0.541772 -0.028206 0.039304
0.612310 0.000170 0.058957
0.615909 -0.063724 0.025072
0.535111 -0.013489 0.026171
0.560351 0.004306 0.080007
0.591060 0.021274 0.015744
0.604027 -0.026370 0.064218
0.609109 0.040892 0.052463
0.539934 0.054935 0.016891
0.577467 -0.042688 0.062881
0.598913 0.069279 0.061680
0.572562 -0.039828 0.063150
0.577107 0.039384 0.009577
0.608284 0.001140 0.067280
0.546649 0.032170 0.081595
0.537524 0.020483 0.011067
0.542721 -0.013030 0.060493
0.584812 -0.029874 0.069355
0.595944 -0.061745 0.054328
0.610755 0.033431 0.055985
0.541022 0.043801 0.011819
0.561224 -0.034139 0.061588
0.540433 0.071533 0.024315
0.610675 -0.065996 0.049246
0.574702 0.014016 0.005263
0.577951 0.082661 0.075055
0.547260 -0.014976 0.006364
0.582555 0.059515 0.017654
0.600529 0.059987 0.070512
0.598496 0.026644 0.023966
0.524473 0.028008 0.043643
0.536473 0.018111 0.070439
0.600019 -0.068297 0.049545
0.542300 -0.011522 0.008759
0.542414 0.017943 0.006946
0.561603 0.035739 0.005317
0.538913 -0.009844 0.011827
0.552503 0.029626 0.083989
0.565720 0.032189 0.087698
0.538168 0.081191 0.062065
0.571795 0.070661 0.016884
0.587018 0.012204 0.083184
0.605372 -0.060880 0.053743
0.539925 0.073501 0.025993
0.584071 -0.062323 0.051535
0.558181 0.016777 0.003073
0.543966 0.092644 0.055297
0.615233 -0.026858 0.041146
0.612997 -0.035825 0.029414
0.596350 -0.001533 0.017484
0.579872 0.019949 0.085801
0.608377 -0.006712 0.064702
0.565369 0.049120 0.008364
0.607650 -0.068428 0.021821
0.594214 0.070788 0.071076
0.605511 0.036446 0.072937
0.541552 -0.016095 0.056459
0.559626 0.064191 0.083832
0.603570 0.017284 0.028733
0.592518 -0.070960 0.020747
0.612035 0.007279 0.061455
0.524598 0.039084 0.043157
0.602680 0.056246 0.069406
0.546562 -0.036457 0.030617
0.581016 0.048244 0.013360
0.528064 0.044826 0.061579
0.553741 0.027550 0.084143
0.585903 -0.033381 0.067910
0.534492 0.078240 0.056108
0.583932 -0.010072 0.007843
0.597940 0.070976 0.061736
0.610859 -0.048247 0.054991
0.566869 -0.043745 0.058002
0.532543 0.047261 0.021462
0.594396 -0.058375 0.014176
0.532403 0.063952 0.030765
0.609623 0.008372 0.037892
0.538628 0.060502 0.020594
0.555434 0.081703 0.022148
0.586688 0.000925 0.080055
0.550218 0.052200 0.010255
0.580926 0.063136 0.017887
0.528388 0.028672 0.060847
0.595512 -0.054983 0.058126
0.557442 0.088985 0.071893
0.563661 -0.058179 0.024921
0.587168 -0.032510 0.009540
0.562576 -0.020288 0.003816
0.604996 0.018997 0.074457
0.591456 0.076779 0.040205
0.602783 -0.010847 0.069101
0.605392 -0.014025 0.025322
0.548741 0.049210 0.082430
0.567654 -0.060832 0.021342
0.611697 -0.016906 0.035497
0.527588 0.007943 0.039110
0.598404 0.029517 0.024467
0.590451 -0.010823 0.012160
0.531802 -0.002402 0.024569
0.580168 -0.060088 0.051807
0.572863 -0.019322 0.073010
0.545500 -0.034259 0.026728
0.536525 -0.015666 0.044967
0.600495 0.066170 0.049360
0.612612 0.008543 0.059284
0.572017 -0.050236 0.011433
0.608750 -0.027117 0.026552
0.550493 0.046787 0.008519
0.536421 -0.003195 0.058712
0.596030 0.030418 0.022031
0.563308 -0.045338 0.011566
0.526871 0.054692 0.041581
0.563465 0.083190 0.023083
0.534925 0.062458 0.025825
0.563640 -0.003288 0.002487
0.585945 -0.005928 0.009237
0.534926 -0.013937 0.029701
0.535909 0.011652 0.067342
0.572556 0.096211 0.053055
0.566216 -0.029960 0.066517
0.545873 0.092687 0.042202
0.584934 -0.008298 0.077148
0.573003 -0.031327 0.067736
0.530586 0.069392 0.041414
0.558260 0.000076 0.002376
0.611504 0.025116 0.050659
0.528433 0.063136 0.046295
0.545768 0.047310 0.010322
0.612168 -0.042290 0.025871
0.538685 0.084816 0.058978
0.598097 -0.032728 0.065775
0.527666 0.059618 0.048826
0.549281 -0.034233 0.050091
0.588541 0.052849 0.083957
0.591265 -0.068470 0.018808
0.584388 -0.060477 0.014523
0.541308 -0.018892 0.053571
0.528821 0.025474 0.060962
0.575209 0.063666 0.084609
0.577405 -0.013851 0.075451
0.573032 -0.009115 0.003697
0.571853 0.040434 0.088363
0.558412 0.030326 0.004308
0.602494 -0.021749 0.020583
0.605129 0.024610 0.074500
0.611332 -0.007114 0.059639
0.579073 0.082561 0.029508
0.528905 0.010889 0.025062
0.600580 0.044520 0.077554
0.592282 0.080046 0.051993
0.530764 -0.001461 0.043321
0.598700 0.046205 0.029519
0.535380 0.080679 0.055369
0.616068 -0.067971 0.043263
0.613118 0.007417 0.050561
0.594774 0.033623 0.021436
0.607276 -0.011240 0.028751
0.570523 -0.047062 0.057554
0.550229 0.086280 0.028140
0.548365 0.007609 0.076309
0.583125 0.018733 0.085234
0.526259 0.031784 0.055850
0.551664 -0.025246 0.060898
0.612734 -0.036237 0.054024
0.529865 0.016676 0.021212
0.593897 0.039406 0.021916
0.617652 -0.039885 0.044066
0.614807 -0.030380 0.049405
0.594738 -0.041869 0.013318
0.565717 -0.057460 0.041279
0.530055 0.063989 0.036733
0.573546 -0.064508 0.039075
0.566745 0.086485 0.074413
0.585482 0.037140 0.013943
0.578791 0.048054 0.087226
0.526816 0.053363 0.039895
0.609281 0.016520 0.068633
0.569880 0.096389 0.058577
0.600441 0.048389 0.033047
