ply
format ascii 1.0
element vertex 1024
property float x
property float y
property float z
end_header
0.532062 0.028233 0.006225
0.588121 0.033765 0.049378
0.595709 -0.010298 -0.000024
0.555267 0.060244 0.009576
0.548586 -0.028565 0.022651
0.498126 0.067441 0.041797
0.523205 0.026366 0.084735
0.562472 0.071977 0.051610
0.598048 -0.023870 0.049019
0.512946 0.088211 0.063771
0.565490 -0.041778 0.008737
0.599762 -0.046309 -0.012702
0.521197 0.064328 0.083963
0.547818 -0.034635 0.039535
0.606888 -0.022262 0.022323
0.588228 0.033474 0.031704
0.567384 0.064726 0.028962
0.562020 -0.013221 0.077233
0.551334 0.028845 -0.002311
0.537229 0.024133 0.088169
0.564871 0.070507 0.042686
0.608185 -0.033162 0.019741
0.531410 -0.013743 0.063855
0.537169 0.049801 0.087263
0.501614 0.058062 0.075249
0.598952 -0.060538 0.010412
0.602752 -0.055467 0.015417
0.534577 0.034229 0.088536
0.574448 0.037266 0.006182
0.607113 -0.046364 -0.000172
0.531751 -0.017238 0.051178
0.579190 -0.006419 -0.006645
0.596335 -0.060111 0.020336
0.549221 -0.021614 0.013537
0.586910 -0.003224 0.066073
0.532003 0.038694 0.005114
0.594518 0.016189 0.024761
0.560993 -0.038796 0.013445
0.520384 0.002312 0.069214
0.572257 -0.023850 -0.007921
0.578906 0.047403 0.059434
0.546395 0.022721 -0.000730
0.576655 0.056237 0.039290
0.580234 -0.048657 0.047762
0.587266 0.028126 0.059064
0.576996 0.022027 0.074734
0.509393 0.027233 0.029330
0.527009 0.032617 0.008798
0.587088 0.006440 0.001711
0.498292 0.042377 0.067341
0.606047 -0.033967 0.029097
0.590468 0.029968 0.041389
0.594519 0.005230 0.054637
0.535579 0.059109 0.007292
0.590553 0.029734 0.039282
0.565007 -0.033586 0.065374
0.507936 0.058091 0.023672
0.570909 0.053475 0.067902
0.574672 0.024829 0.000405
0.512004 0.060436 0.020279
0.574869 -0.055874 0.017632
0.596286 -0.051063 -0.012718
0.539640 0.068787 0.012093
0.561556 0.073073 0.050269
0.581215 0.041704 0.060577
0.542120 -0.005972 0.010639
0.517682 0.082370 0.074234
0.575818 -0.056487 0.013440
0.530468 0.036752 0.088026
0.522931 0.046298 0.010301
0.566055 0.023564 0.082227
0.589042 0.012330 0.062424
0.515607 0.036784 0.082632
0.540096 -0.023170 0.062479
0.562410 -0.042500 0.051480
0.500043 0.035679 0.039906
0.576045 -0.014899 -0.008501
0.537085 0.061781 0.008072
0.541879 0.082011 0.065362
0.506817 0.040718 0.077362
0.518051 0.009520 0.073493
0.598573 -0.060663 0.012273
0.596295 0.000390 0.052332
0.595671 -0.004751 0.003794
0.510611 0.072578 0.078050
0.604339 -0.052837 -0.001145
0.569614 0.061908 0.058375
0.549680 0.038312 -0.000864
0.604240 -0.018918 0.007911
0.556419 0.008376 -0.003188
0.503177 0.083233 0.057840
0.560259 -0.002797 -0.003293
0.561440 0.008798 0.083089
0.594153 0.018092 0.027116
0.516338 0.002874 0.055994
0.509517 0.044202 0.080284
0.505637 0.080395 0.068829
0.533898 -0.005419 0.076316
0.534506 0.014214 0.008352
0.553603 0.074676 0.063558
0.565813 0.063073 0.063884
0.515442 0.035792 0.082347
0.588893 0.015631 0.009363
0.604438 -0.036288 0.032493
0.552268 -0.022133 0.009893
0.593243 -0.050464 -0.013904
0.520846 0.090857 0.049044
0.566188 -0.044901 0.011944
0.501016 0.038615 0.035554
0.502889 0.083161 0.054698
0.566553 0.064710 0.059564
0.517986 0.042901 0.014063
0.561301 0.067430 0.023006
0.603888 -0.024754 0.001250
0.592806 -0.020940 0.056585
0.533385 0.052351 0.005907
0.589073 0.013917 0.062018
0.586891 0.036013 0.050819
0.599883 0.003669 0.035501
0.541983 -0.029022 0.043414
0.559900 0.008449 -0.004246
0.607688 -0.034913 0.022510
0.574391 0.031373 0.075458
0.553618 -0.039609 0.035857
0.587419 -0.050221 0.043675
0.518763 0.039512 0.013865
0.599558 -0.002529 0.013719
0.576342 -0.039683 0.057591
0.555282 -0.037121 0.055853
0.503783 0.074914 0.036810
0.514972 0.071360 0.022412
0.592148 0.022071 0.050291
0.561157 0.032273 0.084027
0.607252 -0.036538 0.001120
0.606582 -0.025387 0.027516
0.571297 0.063825 0.044645
0.595071 -0.012062 0.055678
0.518232 0.001431 0.061869
0.535749 0.073603 0.078317
0.554156 0.061479 0.078199
0.547055 0.083037 0.041494
0.600338 -0.002610 0.016301
0.498328 0.075710 0.056624
0.568497 0.000634 -0.005665
0.500597 0.049998 0.032523
0.580424 0.049884 0.037091
0.550674 0.077832 0.061959
0.505314 0.069011 0.030472
0.515229 0.090504 0.055278
0.537648 -0.023778 0.051880
0.597528 -0.013423 -0.000029
0.494728 0.063463 0.053252
0.522707 0.074291 0.019685
0.523024 0.091248 0.057441
0.580986 0.049283 0.045418
0.556270 0.072375 0.063573
0.522577 -0.001841 0.034476
0.501523 0.069524 0.036264
0.569362 -0.051713 0.027123
0.526896 0.033053 0.087029
0.578970 -0.032722 0.061190
0.606063 -0.023290 0.009012
0.587983 0.003122 0.000709
0.568022 0.003125 0.079370
0.603919 -0.029404 -0.002428
0.589634 0.007092 0.062526
0.522784 0.050592 0.010649
0.597333 0.010664 0.028450
0.552186 -0.005831 0.081387
0.533310 -0.019309 0.043665
0.593468 0.021416 0.032154
0.495284 0.063375 0.061370
0.601344 -0.006065 0.014923
0.547053 -0.030719 0.058186
0.534599 0.062898 0.009155
0.588799 -0.019236 0.060990
0.543220 -0.030252 0.044516
0.528974 -0.012441 0.059447
0.503958 0.082358 0.046389
0.501804 0.048846 0.030791
0.569590 -0.047909 0.045545
0.545609 0.082773 0.035886
0.539181 0.073820 0.016540
0.560621 -0.018551 -0.000218
0.525991 -0.003107 0.029604
0.566626 0.035133 0.000225
0.495374 0.054617 0.043506
0.574501 0.035486 0.074103
0.549371 -0.033226 0.055990
0.547549 0.005353 0.084784
0.520077 0.090967 0.050411
0.601436 -0.003987 0.018932
0.523907 0.055594 0.010800
0.607384 -0.044898 0.016664
0.523166 -0.005108 0.039460
0.543086 0.065751 0.080925
0.508809 0.034774 0.077136
0.579750 0.039772 0.014779
0.495903 0.041223 0.055475
0.520650 0.074596 0.020915
0.499916 0.061935 0.035187
0.527376 0.000692 0.075625
0.553653 0.011407 0.085636
0.558026 0.064805 0.072102
0.568855 0.031086 -0.000402
0.553903 -0.032403 0.018090
0.554963 0.039507 0.085466
0.591926 -0.058628 0.028730
0.599890 -0.053244 -0.008513
0.594550 0.018408 0.044024
0.607140 -0.031161 0.025708
0.514040 0.042351 0.017573
0.605170 -0.026433 0.033074
0.578939 0.043370 0.017423
0.537547 0.061742 0.007972
0.507029 0.050961 0.079646
0.605336 -0.032418 -0.001699
0.582090 -0.000366 0.070442
0.521762 0.087117 0.035497
0.564275 -0.042955 0.012997
0.604190 -0.035953 0.033242
0.518128 0.065563 0.017313
0.566576 -0.044167 0.051541
0.497317 0.060375 0.068684
0.564039 -0.010402 -0.004109
0.555882 -0.037980 0.022641
0.559668 -0.018097 0.075865
0.540504 0.005958 0.006682
0.568526 0.020211 0.080859
0.538964 0.018686 0.003876
0.594640 -0.011839 -0.002059
0.504275 0.079601 0.041085
0.538404 0.076420 0.019210
0.545127 0.009432 0.085811
0.602533 -0.007886 0.036512
0.578959 -0.057939 0.005842
0.544212 0.084293 0.055565
0.605271 -0.048933 0.019192
0.549509 0.008035 0.085447
0.602747 -0.006312 0.022549
0.507489 0.016201 0.051578
0.518908 0.086031 0.035040
0.565819 0.018743 0.082307
0.529699 -0.006204 0.026912
0.565232 0.062513 0.020554
0.570089 -0.009574 -0.006515
0.537015 -0.007965 0.017889
0.533194 -0.018528 0.054008
0.544297 -0.031311 0.041201
0.567329 -0.050052 0.031389
0.586040 -0.060518 0.020997
0.563544 0.050572 0.007081
0.593174 -0.041339 -0.015620
0.537772 0.076738 0.075035
0.517301 0.090773 0.052126
0.554806 0.043826 0.084643
0.498575 0.054302 0.035848
0.516417 0.059400 0.016423
0.599016 -0.043759 -0.013537
0.509283 0.013805 0.047015
0.557589 0.063948 0.014261
0.582156 -0.044986 0.050919
0.495798 0.047480 0.063699
0.528019 0.045854 0.087479
0.559239 -0.005124 0.080492
0.567900 0.067092 0.038655
0.545343 -0.016313 0.014123
0.556204 0.041368 -0.000122
0.531550 0.024727 0.007353
0.568623 -0.047743 0.011169
0.596340 -0.043333 0.041539
0.510424 0.059617 0.021504
0.516886 0.065589 0.018164
0.559407 0.051153 0.080056
0.501128 0.039441 0.070537
0.593518 0.018629 0.024920
0.597270 -0.034353 -0.012599
0.583308 -0.034610 -0.013631
0.541961 -0.024321 0.063547
0.576034 0.002273 -0.005117
0.511665 0.068104 0.023381
0.528117 -0.008188 0.067431
0.494792 0.058968 0.047058
0.571810 -0.045169 0.000559
0.569429 0.063761 0.032085
0.571034 0.021092 0.079286
0.519768 0.022524 0.018312
0.531057 -0.011086 0.030310
0.497098 0.071931 0.051744
0.521327 0.044480 0.011389
0.528685 0.024186 0.086441
0.602088 -0.049966 0.026101
0.582774 0.025882 0.007990
0.589885 0.017979 0.059246
0.496374 0.067303 0.062834
0.555951 0.068138 0.017793
0.550693 -0.035619 0.051093
0.531231 0.082417 0.025616
0.540681 0.070165 0.079066
0.601779 -0.034056 0.039141
0.596208 -0.020608 -0.006012
0.577836 -0.004802 -0.006395
0.574085 -0.037898 0.059819
0.593719 -0.028426 0.052768
0.605441 -0.029403 0.000938
0.583976 -0.035984 -0.013990
0.576475 0.053549 0.028748
0.582452 -0.048532 -0.011950
0.582426 -0.041902 -0.013287
0.522498 0.090667 0.046923
0.540519 0.083620 0.063730
0.500732 0.080283 0.054554
0.513591 0.044272 0.017724
0.527522 0.085579 0.030519
0.503517 0.023172 0.053660
0.540813 0.078855 0.071074
0.532310 0.072126 0.080148
0.538347 0.034097 0.002134
0.500193 0.047479 0.033487
0.588711 -0.061931 0.013622
0.563193 0.047600 0.004964
0.552964 0.007888 0.085045
0.498783 0.076700 0.056730
0.538583 0.031176 0.002156
0.563928 -0.025225 -0.000992
0.540665 0.050022 0.086866
0.577344 0.028362 0.073413
0.600480 -0.007167 0.010672
0.510789 0.066414 0.080485
0.508699 0.031915 0.075914
0.556193 -0.035153 0.017580
0.561727 0.051723 0.078203
0.585925 -0.028467 0.059200
0.596608 0.012279 0.027630
0.598541 -0.028694 -0.008909
0.561822 0.048059 0.079646
0.579095 -0.056739 0.028814
0.515482 0.017093 0.075861
0.569341 0.018291 0.080348
0.500144 0.079232 0.053617
0.589454 -0.023280 -0.010754
0.596384 -0.005483 0.053365
0.536424 0.035087 0.088651
0.582204 0.041484 0.058390
0.590498 -0.017390 -0.007737
0.569827 -0.038098 -0.001785
0.525416 -0.009053 0.042616
0.529315 -0.002054 0.023464
0.595754 -0.018878 -0.005344
0.519721 -0.001998 0.052805
0.536546 -0.022042 0.037486
0.552427 0.029760 0.087308
0.512521 0.087224 0.043490
0.585087 -0.039164 0.053640
0.596179 0.014040 0.029928
0.515644 0.025277 0.079708
0.494125 0.059401 0.055619
0.605964 -0.048875 0.016827
0.577364 -0.022885 -0.010162
0.533378 -0.004509 0.076528
0.518169 0.089891 0.046226
0.539420 0.066360 0.081642
0.508994 0.014673 0.059332
0.555962 -0.033012 0.015093
0.588560 0.032030 0.050733
0.494772 0.058747 0.061542
0.520709 0.023034 0.017071
0.600792 -0.012906 0.005546
0.538991 -0.001739 0.080741
0.526770 0.032162 0.086917
0.576506 0.055987 0.036526
0.527273 0.049852 0.087131
0.538548 0.048305 0.003389
0.514068 0.087700 0.043044
0.571918 0.035989 0.076306
0.501282 0.049933 0.031468
0.508008 0.015833 0.057510
0.601980 -0.009653 0.012101
0.569732 -0.038453 -0.001410
0.567401 -0.012740 -0.005603
0.517350 0.081432 0.074957
0.607394 -0.046087 0.014817
0.564435 0.031622 0.082467
0.601593 -0.001436 0.029519
0.594033 0.020060 0.043774
0.567576 -0.016041 0.074451
0.595228 0.017586 0.038624
0.561711 0.062470 0.070602
0.575600 0.042760 0.069357
0.603708 -0.045592 -0.008793
0.510754 0.063241 0.022236
0.496739 0.067511 0.046276
0.605196 -0.014749 0.021161
0.532355 -0.015763 0.061287
0.566348 -0.022319 -0.003968
0.544497 0.065458 0.080597
0.546254 0.033628 0.088263
0.585538 -0.026584 0.060389
0.506416 0.071970 0.075604
0.504607 0.071464 0.074308
0.517442 0.086698 0.037572
0.522112 0.079743 0.024611
0.539498 0.009258 0.006276
0.547291 0.071604 0.074565
0.525306 -0.008952 0.054902
0.554431 -0.040101 0.040994
0.560731 0.013033 -0.004476
0.559888 0.043020 0.001269
0.572819 -0.017480 -0.008007
0.599114 -0.002994 0.011880
0.501346 0.066274 0.073138
0.537756 0.052042 0.004482
0.552321 -0.001181 0.082791
0.521905 0.074908 0.079748
0.502567 0.059533 0.076089
0.596192 0.014778 0.039166
0.606425 -0.024995 0.028150
0.550949 -0.014721 0.077840
0.548862 0.080632 0.058383
0.589364 -0.000238 0.000041
0.564026 0.050400 0.007253
0.494016 0.058326 0.055114
0.512680 0.027702 0.078051
0.497894 0.059822 0.069874
0.496550 0.069443 0.050055
0.594671 0.008157 0.013326
0.568029 0.028194 0.080777
0.514149 0.024477 0.024138
0.560535 0.034660 0.083985
0.582803 0.044855 0.050350
0.526667 -0.011151 0.049721
0.570876 0.013923 -0.004034
0.536734 0.014462 0.086204
0.605508 -0.018810 0.013192
0.601837 -0.002886 0.024941
0.608163 -0.029620 0.014059
0.555319 -0.026986 0.070373
0.586210 0.037604 0.031572
0.555692 0.076422 0.056004
0.589945 0.024717 0.054906
0.571553 -0.051323 0.037654
0.562220 -0.040379 0.013341
0.585922 0.040014 0.040149
0.572230 0.036431 0.075887
0.523885 0.002272 0.027637
0.588021 -0.053671 -0.011816
0.575164 0.056093 0.055281
0.530588 0.046444 0.006068
0.520811 0.081917 0.074994
0.573711 0.019212 0.077494
0.532730 0.047651 0.005276
0.502465 0.026877 0.044282
0.541338 -0.021374 0.025772
0.506486 0.021625 0.039591
0.553184 0.079450 0.049611
0.538158 0.036610 0.088654
0.532044 -0.015898 0.036203
0.569699 -0.011613 -0.006502
0.601018 -0.003865 0.040229
0.550818 0.009832 0.085745
0.523713 0.045064 0.009783
0.515854 0.090132 0.049840
0.513552 0.082690 0.072559
0.509829 0.048145 0.081156
0.565487 0.060934 0.067553
0.541646 0.063093 0.008260
0.543610 -0.014464 0.076128
0.533407 0.055390 0.086404
0.593225 0.020770 0.028234
0.532674 0.016882 0.085951
0.557619 0.009645 0.084415
0.547277 0.051785 0.003104
0.496770 0.061854 0.041647
0.559104 0.073023 0.057399
0.565502 -0.048930 0.029112
0.591434 -0.016589 -0.006899
0.551011 0.031652 -0.002008
0.545155 0.080626 0.064159
0.603995 -0.055470 0.008806
0.497938 0.062580 0.069300
0.600583 -0.007669 0.010366
0.521069 0.060902 0.013807
0.581318 0.047934 0.049388
0.576526 -0.056213 0.007782
0.574620 -0.055687 0.018762
0.577575 0.043903 0.015516
0.573320 0.058624 0.030624
0.570157 0.043195 0.006496
0.569437 0.009141 0.079620
0.580891 -0.010002 0.069595
0.587758 0.032081 0.053859
0.568186 0.037428 0.001982
0.602318 -0.021294 0.041205
0.565730 0.062212 0.020838
0.588479 -0.031396 -0.013881
0.551350 -0.032599 0.023197
0.535775 0.086095 0.033415
0.568327 0.061533 0.024178
0.550353 -0.025310 0.015568
0.496859 0.062021 0.041499
0.527465 0.038258 0.087468
0.557874 0.064731 0.015334
0.584821 0.019506 0.066865
0.591133 -0.001654 0.000744
0.526059 -0.007791 0.063311
0.598200 -0.012420 0.001590
0.592256 0.013897 0.056006
0.520761 -0.002966 0.056744
0.589544 -0.061941 0.005423
0.532213 0.063010 0.084377
0.557830 -0.024562 0.072536
0.598157 0.008763 0.029570
0.522884 0.091305 0.052337
0.591574 0.023985 0.050146
0.522873 0.091218 0.051086
0.599337 -0.000701 0.044442
0.568277 -0.022092 -0.005465
0.552920 -0.027191 0.069428
0.584717 -0.008701 -0.006191
0.523362 0.055281 0.011033
0.512994 0.031884 0.021651
0.520950 0.074997 0.079658
0.507145 0.028663 0.031870
0.589632 -0.036262 0.052330
0.504197 0.049146 0.077142
0.499181 0.032139 0.052239
0.586341 0.009467 0.002675
0.554642 -0.040478 0.037537
0.577688 -0.034781 -0.010782
0.545721 0.075932 0.070879
0.595164 -0.027762 0.051474
0.539437 0.078966 0.022608
0.589989 -0.056201 0.034620
0.565822 -0.029148 -0.001411
0.541778 0.065230 0.009556
0.541025 0.082753 0.064907
0.514979 0.077917 0.027206
0.542769 0.054289 0.004239
0.531812 -0.015775 0.059173
0.593845 -0.031049 -0.012807
0.548149 -0.026651 0.020927
0.530086 0.029513 0.087557
0.561696 0.052740 0.007515
0.600488 -0.058249 0.015706
0.537458 0.042548 0.088259
0.572804 0.042512 0.072747
0.563001 -0.030851 0.002635
0.520110 -0.002163 0.045158
0.579872 -0.020096 0.066960
0.569253 -0.049071 0.012197
0.566261 -0.019136 -0.004447
0.584277 0.015974 0.068084
0.563951 0.070729 0.051078
0.555140 0.077839 0.051771
0.586839 -0.027414 -0.012662
0.583405 -0.060327 0.017246
0.510963 0.010805 0.049212
0.517169 0.088453 0.042135
0.515547 0.062842 0.018097
0.531119 -0.016120 0.053972
0.559521 -0.043652 0.041372
0.515906 0.040838 0.016116
0.551174 -0.009402 0.080146
0.553691 -0.035508 0.023041
0.595021 0.009508 0.051518
0.550655 0.072535 0.070480
0.572280 -0.046830 0.049592
0.519900 0.063163 0.015280
0.589686 -0.048528 -0.014703
0.559853 0.027905 -0.003273
0.572837 -0.053642 0.013199
0.516043 0.088808 0.064860
0.510138 0.080790 0.034847
0.504774 0.045334 0.027217
0.526857 -0.009474 0.037468
0.514916 0.017806 0.027973
0.497132 0.039428 0.045936
0.509745 0.045123 0.080615
0.512538 0.008511 0.056813
0.553336 0.062415 0.010319
0.522559 0.091285 0.052050
0.553105 0.051502 0.083236
0.514583 0.083072 0.072637
0.522752 0.065458 0.014651
0.533254 0.011199 0.010537
0.507636 0.071575 0.029230
0.514459 0.052478 0.016795
0.582354 0.023891 0.069008
0.585819 0.009293 0.002139
0.603197 -0.009072 0.033914
0.591319 -0.010416 0.060687
0.513919 0.024826 0.078062
0.540496 0.026774 0.088582
0.579459 0.017667 0.000979
0.526002 0.033537 0.009342
0.608504 -0.037925 0.016202
0.536450 -0.007486 0.076706
0.608330 -0.033342 0.018497
0.525065 0.012980 0.017669
0.513368 0.034983 0.080809
0.518194 0.001769 0.040361
0.519908 0.061989 0.084377
0.557914 0.074327 0.033652
0.528368 -0.012795 0.054223
0.543733 0.083289 0.060100
0.568165 -0.048815 0.040839
0.597153 -0.045095 -0.014396
0.566917 0.026350 0.081606
0.555058 -0.031242 0.014473
0.571415 0.021545 -0.002243
0.608044 -0.029681 0.011852
0.503318 0.069692 0.033544
0.499538 0.060950 0.035506
0.555901 -0.025475 0.007782
0.560682 0.005411 0.082696
0.591954 -0.005477 0.060344
0.582635 0.025312 0.007476
0.546867 -0.029869 0.027764
0.523280 0.065570 0.014444
0.569411 0.058369 0.064863
0.581826 0.033994 0.012633
0.589325 -0.013164 -0.006292
0.510638 0.029512 0.025900
0.514424 0.090254 0.054069
0.572618 0.003783 -0.005349
0.588067 -0.013343 0.063356
0.588321 -0.031314 0.056020
0.579883 -0.050672 0.045025
0.529617 -0.001477 0.075839
0.593360 0.000049 0.004199
0.546993 0.070912 0.015338
0.566750 0.030841 -0.001303
0.576719 -0.053667 0.000804
0.559377 0.070533 0.026200
0.549037 0.076428 0.024617
0.592308 -0.043828 0.045354
0.537512 -0.014900 0.071704
0.518882 0.035713 0.014493
0.522294 0.037089 0.011454
0.506396 0.073046 0.031692
0.586179 0.036939 0.052198
0.566757 0.046413 0.076547
0.569532 0.064813 0.036068
0.567566 0.037970 0.079137
0.538383 0.020958 0.003707
0.583220 0.006208 0.069781
0.598642 -0.022952 -0.005240
0.566879 0.018646 0.081761
0.607795 -0.035845 0.004052
0.593821 -0.031542 0.051197
0.582953 -0.060528 0.007499
0.568931 0.059704 0.022084
0.497008 0.068152 0.045969
0.561368 -0.043151 0.048143
0.571472 0.030111 0.078152
0.585860 0.029688 0.061028
0.529761 0.090514 0.054697
0.554906 -0.003778 -0.000242
0.523393 -0.000804 0.031502
0.574748 0.002122 -0.005367
0.520152 0.059744 0.084873
0.571111 0.038387 0.076169
0.500533 0.075140 0.066707
0.541328 0.070832 0.078375
0.509875 0.017113 0.067071
0.604169 -0.046153 -0.007923
0.500658 0.040558 0.070431
0.581784 -0.047318 0.048886
0.495612 0.055433 0.065099
0.587883 0.002808 0.000470
0.514836 0.026137 0.022246
0.575669 0.016474 -0.001684
0.509414 0.052302 0.021468
0.514500 0.060963 0.083224
0.572276 0.053135 0.018068
0.534780 0.076276 0.076618
0.574461 -0.038497 0.059206
0.548387 0.081114 0.035588
0.586371 0.038134 0.034462
0.574286 -0.000028 0.075623
0.592403 0.024938 0.036839
0.511213 0.088344 0.048761
0.591516 0.027395 0.039945
0.603745 -0.036931 0.033763
0.527919 0.090797 0.048862
0.605234 -0.029531 0.000315
0.593106 0.013821 0.015933
0.549349 -0.018998 0.075080
0.568817 0.005178 0.079358
0.578142 0.051944 0.053988
0.523001 0.071042 0.017421
0.581826 0.035782 0.014327
0.578005 -0.027075 -0.010888
0.582129 0.046369 0.034745
0.575765 0.024690 0.001055
0.508688 0.079390 0.072606
0.591944 0.023622 0.027857
0.522375 0.084819 0.030828
0.511992 0.087122 0.065336
0.530379 -0.007717 0.071424
0.566972 0.026974 0.081531
0.572228 0.062323 0.039313
0.565854 0.069682 0.045446
0.560438 0.022545 -0.003990
0.582646 -0.060522 0.009698
0.559431 -0.034692 0.063425
0.509748 0.082996 0.069860
0.555612 0.075526 0.058567
0.528897 0.069156 0.082229
0.536463 -0.022511 0.039746
0.543281 -0.015962 0.016623
0.597328 0.006248 0.046653
0.595171 -0.005859 0.002350
0.595002 -0.010737 0.055878
0.593672 -0.062294 0.011399
0.504912 0.084530 0.059541
0.598102 -0.001842 0.010628
0.535372 0.061136 0.008166
0.592900 0.022158 0.029900
0.531826 0.018307 0.009010
0.605316 -0.039821 0.028254
0.501228 0.056060 0.031718
0.540673 -0.025781 0.034173
0.507275 0.024361 0.069514
0.516222 0.074529 0.023541
0.576043 0.012425 -0.002639
0.589493 0.006356 0.062827
0.501360 0.063159 0.033299
0.531687 0.089570 0.057669
0.605864 -0.019256 0.027619
0.595219 -0.031170 -0.012301
0.524428 0.017769 0.083029
0.508085 0.030784 0.074764
0.518420 0.002305 0.064888
0.596012 -0.024279 -0.008303
0.548104 -0.032583 0.030054
0.496450 0.069439 0.050737
0.602140 -0.024537 0.041282
0.521375 0.054149 0.011979
0.558460 0.009340 0.084123
0.572694 0.059746 0.031516
0.510799 0.014350 0.065456
0.598231 0.008148 0.039544
0.583883 -0.008052 0.067937
0.525937 0.075512 0.019385
0.600232 -0.017091 0.000970
0.571251 -0.040002 0.058571
0.539877 0.005135 0.083719
0.504770 0.033403 0.032378
0.534931 0.078723 0.021352
0.591364 0.027243 0.044677
0.599122 -0.018609 0.048267
0.545276 0.076659 0.022070
0.578731 -0.047984 -0.008811
0.576807 -0.024456 -0.010167
0.572538 -0.022646 -0.008102
0.586092 0.038418 0.033396
0.554146 0.054097 0.081875
0.567327 0.005513 -0.005342
0.505227 0.034547 0.073374
0.567309 -0.049836 0.021583
0.578860 -0.056455 0.029720
0.556022 -0.032720 0.064441
0.553869 0.039971 0.085773
0.536526 0.087707 0.039488
0.577784 -0.046438 0.050724
0.507787 0.015691 0.052750
0.535058 0.067311 0.082190
0.510413 0.035400 0.023272
0.547191 0.030804 0.088243
0.526624 0.021913 0.011971
0.569849 -0.048181 0.045124
0.597848 -0.007965 0.050729
0.495205 0.056571 0.063749
0.600714 -0.000352 0.022730
0.548731 0.054798 0.083758
0.522202 0.045836 0.010764
0.578158 -0.054875 -0.000344
0.503608 0.072941 0.072529
0.522952 0.039689 0.010611
0.578003 0.006483 0.074015
0.586830 0.036658 0.032554
0.580418 -0.059219 0.007205
0.547453 0.008136 0.085525
0.563736 0.066527 0.061575
0.536546 0.010192 0.008204
0.599692 -0.050115 0.030616
0.587578 -0.017513 0.062579
0.527394 0.035442 0.008087
0.606365 -0.050586 0.002088
0.582496 0.027949 0.008954
0.509546 0.022632 0.071792
0.552788 -0.034720 0.058040
0.593187 -0.006640 0.058660
0.571228 0.054423 0.066545
0.607794 -0.038697 0.002417
0.496054 0.062275 0.043998
0.554584 0.077933 0.053428
0.595390 -0.024986 0.052264
0.557055 -0.040492 0.048752
0.581674 -0.038024 0.056356
0.601754 -0.003597 0.035830
0.592284 -0.038394 -0.015394
0.589566 -0.060570 0.023341
0.552457 -0.007968 0.002734
0.562424 -0.004837 -0.003967
0.536941 0.030386 0.088620
0.558477 0.017559 0.085276
0.516996 0.056754 0.015414
0.595284 -0.056462 0.029323
0.508206 0.078408 0.034282
0.502719 0.031794 0.067882
0.559836 -0.039693 0.055309
0.560804 0.016612 0.084377
0.597177 0.008212 0.021313
0.500525 0.055603 0.032726
0.554917 0.066259 0.073661
0.555600 0.077462 0.040804
0.570594 -0.050077 0.040528
0.585206 -0.033515 -0.014021
0.546641 -0.031275 0.055602
0.578305 -0.058131 0.017038
0.565728 0.069810 0.044654
0.584230 -0.010434 0.067158
0.605035 -0.021956 0.033127
0.555762 0.041048 0.084862
0.540312 -0.026659 0.051107
0.605329 -0.045976 0.022808
0.508235 0.048288 0.022745
0.591691 0.024237 0.049293
0.577489 0.033500 0.006699
0.540944 0.047838 0.002662
0.533747 0.007405 0.011777
0.507862 0.085359 0.063805
0.526473 0.083426 0.072849
0.581051 0.024664 0.005373
0.520968 0.062571 0.014444
0.575562 0.047412 0.016223
0.543569 -0.001466 0.082195
0.576868 0.055432 0.036478
0.566962 0.062464 0.062868
0.510400 0.084581 0.040286
0.508492 0.072274 0.028746
0.559935 -0.044522 0.036915
0.577847 0.039114 0.068587
0.585239 -0.016007 0.064882
0.565817 0.014953 -0.004626
0.584171 -0.054966 -0.008884
0.567326 -0.013916 0.075284
0.588437 0.034651 0.042916
0.525185 0.001855 0.026061
0.589135 -0.000470 -0.000257
0.534366 0.040405 0.003958
0.513582 0.029506 0.079437
0.604554 -0.012107 0.024244
0.523801 0.067874 0.015298
0.603803 -0.009616 0.029298
0.511395 0.011500 0.042720
0.571881 0.021516 -0.002060
0.573517 0.056694 0.058984
0.533189 0.000486 0.079190
0.589842 0.009478 0.061798
0.599019 0.001334 0.017263
0.607623 -0.032681 0.005670
0.541570 0.037284 0.000935
0.517277 0.017869 0.078097
0.601139 -0.006019 0.041270
0.507546 0.046665 0.079385
0.603916 -0.039910 -0.008290
0.525941 -0.009858 0.043160
0.528487 0.087703 0.034848
0.551823 -0.029049 0.066754
0.502441 0.031462 0.038083
0.536017 0.067037 0.011168
0.525897 0.011048 0.017894
0.553861 0.028774 0.086975
0.577141 0.039277 0.069435
0.607829 -0.040910 0.001840
0.552191 -0.024672 0.071546
0.530993 -0.004397 0.074868
0.513957 0.006628 0.058261
0.553919 -0.021203 0.074493
0.575754 0.056206 0.052563
0.573993 0.060014 0.039242
0.528277 0.079555 0.075924
0.496540 0.039558 0.049924
0.579987 0.041389 0.017094
0.604723 -0.032872 -0.003359
0.507511 0.049269 0.079791
0.608423 -0.034476 0.017722
0.525853 -0.008595 0.060004
0.514574 0.083045 0.072661
0.570830 -0.017057 -0.007180
0.569007 -0.031504 -0.003858
0.540748 -0.013851 0.018168
0.578057 0.049149 0.024440
0.575332 0.014020 -0.002524
0.506328 0.018307 0.055449
0.586703 -0.060248 -0.000722
0.530399 0.075592 0.018388
0.552624 0.051278 0.003378
0.589284 0.004542 0.063333
0.550876 0.081020 0.049271
0.534575 0.007236 0.011095
0.590699 -0.062151 0.014007
0.562847 0.021859 -0.004049
0.546014 0.036525 0.088109
0.537323 0.063456 0.008865
0.583677 -0.028169 0.060865
0.507312 0.020374 0.039160
0.554515 0.053122 0.082055
0.577015 0.054740 0.051104
0.600140 -0.002260 0.016081
0.526782 0.073504 0.080266
0.542171 -0.026102 0.031127
0.522892 0.069195 0.016418
0.595976 -0.023041 -0.007615
0.603940 -0.015731 0.035368
0.523495 0.027349 0.085047
0.577162 -0.057525 0.014664
0.518860 0.045887 0.085296
0.545872 0.006702 0.002606
0.512715 0.036154 0.080646
0.496121 0.051943 0.066164
0.585446 0.031035 0.016781
0.508645 0.022524 0.070263
0.500491 0.034338 0.040018
0.564834 0.040813 0.080163
0.605841 -0.025136 0.006133
0.526107 0.091084 0.056144
0.590850 -0.048680 0.042851
0.557869 -0.041475 0.025290
0.550514 -0.035351 0.051659
0.565585 0.039596 0.001769
0.505000 0.059044 0.027196
0.582374 0.014250 0.001733
0.552920 -0.018034 0.006612
0.562187 0.069612 0.058589
0.589296 -0.053236 0.039299
0.560817 -0.013483 -0.001668
0.563559 0.010892 0.082612
0.524331 0.013492 0.018198
0.544429 -0.024000 0.023904
0.559372 -0.006764 0.079976
0.607895 -0.032484 0.021728
0.596898 0.012066 0.029420
0.579647 -0.029168 0.062827
0.581851 -0.002754 0.070336
0.516837 0.057134 0.015607
0.560337 0.021276 -0.004095
0.574232 -0.052450 0.037907
0.561954 -0.026906 0.001725
0.511012 0.017376 0.069730
0.583210 0.015728 0.069316
0.522473 0.012595 0.021049
0.572775 -0.048392 0.046922
0.533902 0.046746 0.087812
0.494162 0.053306 0.058298
0.515854 0.041315 0.083548
0.537881 -0.023891 0.052648
0.539958 -0.022216 0.029348
0.570171 -0.011828 0.074791
0.579416 0.032475 0.069854
0.504813 0.082841 0.045461
0.600811 0.000169 0.035952
0.504866 0.074063 0.073123
0.589961 0.022397 0.018039
0.601230 -0.000302 0.028951
0.523113 0.057200 0.085760
0.536616 -0.021269 0.058288
0.543252 0.027547 0.000269
0.531233 0.056056 0.086339
0.512890 0.019199 0.074088
0.571023 -0.038603 -0.003101
0.523535 0.080075 0.076348
0.595728 -0.003785 0.004597
0.535559 0.055247 0.086269
0.595449 -0.013391 0.054985
0.552793 0.071529 0.019759
0.587895 -0.061598 0.015839
0.580844 -0.058375 0.024173
0.589171 0.000541 0.063789
0.566987 0.038536 0.079381
0.548642 0.080468 0.033830
0.594023 0.017522 0.025120
0.540780 -0.027742 0.042629
0.567664 0.066214 0.033995
0.517538 0.002131 0.060990
0.555355 -0.026775 0.009472
0.561799 0.043717 0.002224
0.571416 0.010142 -0.004559
0.496001 0.056528 0.041820
0.551334 0.003407 0.084127
0.551444 0.060542 0.008236
0.510995 0.069430 0.024641
0.572256 0.006754 0.077765
0.516593 0.029108 0.018775
0.524432 0.074741 0.079785
0.599916 -0.045672 -0.012714
0.554804 0.014484 -0.003162
0.520140 0.014587 0.022722
0.553095 -0.013746 0.004454
0.605124 -0.018623 0.031522
0.498332 0.059603 0.070678
0.586000 0.035078 0.055649
0.577819 0.047729 0.021229
0.559615 0.039773 0.083461
0.596574 0.000433 0.051685
0.586805 -0.015015 -0.008010
0.544503 0.004965 0.084482
0.516755 0.019176 0.024105
0.581209 -0.024688 -0.011441
0.579156 -0.013979 -0.008600
0.565343 -0.046073 0.016225
0.601561 -0.037095 0.038014
0.523544 0.050087 0.086539
0.603176 -0.044095 0.029999
0.527708 0.090560 0.046331
0.514321 0.012462 0.033514
0.560315 0.070692 0.028213
0.533614 0.044628 0.088025
0.562259 0.033624 -0.001652
0.509152 0.086855 0.047118
0.517272 0.033030 0.016677
