ply
format ascii 1.0
element vertex 256
property float x
property float y
property float z
end_header
0.283561 0.149428 0.179028
0.437622 0.168034 0.109589
0.342618 0.245245 0.125565
0.375957 0.185714 0.202342
0.363976 0.112166 0.141001
0.305241 0.224414 0.195549
0.340721 0.122087 0.201303
0.388449 0.137330 0.090244
0.279326 0.180607 0.230651
0.406085 0.151525 0.158675
0.328588 0.176727 0.173317
0.381085 0.214964 0.112508
0.305465 0.221546 0.145115
0.327733 0.180623 0.220059
0.271671 0.195013 0.188393
0.364625 0.150194 0.176439
0.304485 0.146041 0.215527
0.324820 0.128871 0.164940
0.341489 0.228426 0.161861
0.399082 0.123345 0.125638
0.341641 0.207550 0.193769
0.386066 0.182666 0.164085
0.365936 0.114502 0.176377
0.367029 0.115848 0.106563
0.427227 0.135816 0.111774
0.266326 0.162358 0.204616
0.420350 0.174798 0.139430
0.345802 0.154622 0.203934
0.308120 0.190509 0.195005
0.306682 0.122893 0.190999
0.359481 0.219789 0.135180
0.376059 0.141385 0.141012
0.356848 0.187694 0.176876
0.313060 0.238513 0.170127
0.285094 0.203742 0.213116
0.400851 0.154187 0.130082
0.388238 0.128332 0.163611
0.350927 0.222012 0.108081
0.390770 0.166679 0.185920
0.330579 0.220890 0.128587
0.329390 0.249325 0.149560
0.311040 0.204092 0.219415
0.313985 0.212231 0.168278
0.341016 0.149823 0.165414
0.286475 0.178631 0.204252
0.310503 0.147616 0.174479
0.352697 0.193078 0.211024
0.383386 0.139528 0.114799
0.362053 0.134827 0.199228
0.410371 0.175380 0.162257
0.362190 0.131959 0.158864
0.387469 0.108011 0.144455
0.300497 0.171012 0.224484
0.424208 0.149479 0.131159
0.347412 0.128978 0.178217
0.365473 0.237166 0.120550
0.382854 0.162788 0.152049
0.325841 0.157568 0.216773
0.369828 0.163387 0.195437
0.302902 0.174648 0.178994
0.416224 0.169007 0.117360
0.330122 0.167839 0.194130
0.284303 0.140641 0.206720
0.331593 0.114107 0.182800
0.325982 0.214781 0.149468
0.388280 0.147230 0.176444
0.378760 0.109261 0.123688
0.400672 0.135363 0.145180
0.403388 0.136534 0.107077
0.354292 0.241309 0.143301
0.294018 0.224818 0.163044
0.368700 0.128487 0.089413
0.313530 0.238981 0.136242
0.331504 0.199008 0.177380
0.324626 0.133926 0.206804
0.350556 0.114293 0.162596
0.427311 0.158758 0.150105
0.386922 0.120547 0.107480
0.348467 0.172446 0.213237
0.297128 0.206311 0.188768
0.351890 0.166207 0.186511
0.377877 0.185643 0.182053
0.330425 0.200581 0.216842
0.374166 0.109246 0.159205
0.327201 0.223034 0.178192
0.273911 0.170807 0.188760
0.363354 0.196946 0.192661
0.419942 0.153555 0.106291
0.373119 0.132412 0.175581
0.401934 0.170303 0.145776
0.315925 0.208004 0.195817
0.434261 0.166709 0.129033
0.281736 0.161161 0.215281
0.296179 0.188939 0.224278
0.394556 0.163511 0.168284
0.376637 0.147822 0.160529
0.295158 0.130358 0.178996
0.319294 0.233848 0.153735
0.378110 0.123273 0.146793
0.340174 0.225252 0.143180
0.373025 0.171550 0.172070
0.322781 0.117582 0.199729
0.336524 0.230183 0.114715
0.300812 0.220823 0.178511
0.363675 0.179312 0.191877
0.349386 0.144847 0.184870
0.366141 0.215020 0.103847
0.374305 0.222772 0.126228
0.408882 0.140255 0.124060
0.330411 0.240202 0.167526
0.402070 0.175965 0.177133
0.301873 0.203939 0.204890
0.378255 0.124944 0.129354
0.392054 0.138541 0.128968
0.413213 0.159510 0.140050
0.356444 0.172292 0.170916
0.298559 0.208932 0.164518
0.355686 0.212541 0.120351
0.295632 0.160126 0.180428
0.313482 0.121565 0.173623
0.372867 0.130733 0.106454
0.363755 0.170712 0.208188
0.420395 0.163101 0.163745
0.279677 0.154973 0.200459
0.332251 0.236429 0.135318
0.350442 0.113652 0.180367
0.350941 0.236493 0.114283
0.314443 0.230183 0.184164
0.430960 0.156366 0.117598
0.309938 0.196973 0.180922
0.344697 0.228497 0.127874
0.430811 0.144659 0.099634
0.413810 0.142934 0.142408
0.377822 0.117620 0.095364
0.363011 0.148671 0.191603
0.346561 0.199257 0.179011
0.393890 0.141536 0.158808
0.409386 0.154641 0.117595
0.312120 0.162337 0.177346
0.373218 0.229189 0.110360
0.341076 0.162080 0.174167
0.389540 0.153561 0.139996
0.297696 0.188451 0.206088
0.289191 0.141597 0.190326
0.379768 0.158417 0.171281
0.392565 0.122580 0.143843
0.375949 0.153873 0.185128
0.365690 0.235670 0.135875
0.285052 0.180326 0.187605
0.393468 0.110165 0.128818
0.390070 0.145797 0.102087
0.339167 0.121621 0.168122
0.342338 0.238928 0.151270
0.356029 0.121924 0.148166
0.275716 0.166764 0.228656
0.351626 0.127743 0.191917
0.317449 0.190151 0.223025
0.320792 0.211078 0.208884
0.317303 0.221694 0.133770
0.308227 0.210765 0.153943
0.266575 0.161787 0.219018
0.370344 0.121709 0.164753
0.315168 0.214133 0.182250
0.295450 0.131962 0.206438
0.408726 0.162640 0.171533
0.368781 0.123265 0.119178
0.305840 0.237457 0.154610
0.421150 0.172671 0.153106
0.336145 0.136879 0.165495
0.378235 0.175087 0.190925
0.397022 0.128565 0.097823
0.297756 0.158089 0.220680
0.284250 0.193538 0.229250
0.310072 0.135713 0.208532
0.307873 0.222440 0.161553
0.365597 0.125443 0.138295
0.323575 0.195637 0.187898
0.335788 0.166680 0.216164
0.385792 0.175000 0.176539
0.342461 0.202835 0.206343
0.399959 0.180369 0.155456
0.341827 0.177342 0.175247
0.425655 0.165456 0.104044
0.338367 0.135256 0.200917
0.359996 0.132975 0.173281
0.363139 0.223293 0.116788
0.428288 0.174161 0.119584
0.320895 0.145073 0.212948
0.354884 0.145062 0.204643
0.419372 0.161744 0.127835
0.395871 0.159230 0.149996
0.363592 0.186408 0.208163
0.380435 0.109664 0.110678
0.387138 0.127665 0.118752
0.400317 0.140890 0.094321
0.423523 0.137639 0.124103
0.398250 0.124775 0.112207
0.386255 0.133105 0.139719
0.295723 0.129384 0.193310
0.305293 0.135113 0.172873
0.414443 0.161512 0.152481
0.395672 0.142899 0.114810
0.344963 0.112686 0.191702
0.358818 0.244841 0.130668
0.415261 0.139585 0.112484
0.326579 0.116688 0.171582
0.352404 0.127075 0.165014
0.369225 0.116224 0.130359
0.321372 0.244801 0.160179
0.342414 0.183187 0.211455
0.330942 0.238883 0.123193
0.295801 0.195605 0.194931
0.359359 0.199770 0.175502
0.371242 0.193901 0.175635
0.363077 0.125853 0.100078
0.365345 0.165167 0.179246
0.368516 0.142074 0.167721
0.286069 0.191755 0.204052
0.383307 0.138063 0.170107
0.387156 0.145365 0.149387
0.434401 0.145996 0.112246
0.405201 0.152487 0.145893
0.383825 0.115609 0.154284
0.426272 0.161350 0.138288
0.349319 0.250039 0.136140
0.372281 0.212395 0.120345
0.312141 0.197731 0.204203
0.392141 0.152342 0.164561
0.314527 0.159827 0.220120
0.351001 0.230955 0.137765
0.288481 0.169041 0.183922
0.336487 0.125258 0.181235
0.395357 0.128479 0.154098
0.343174 0.220585 0.119146
0.351519 0.152114 0.175722
0.334931 0.220232 0.156311
0.375721 0.107226 0.145859
0.349458 0.159044 0.166339
0.288997 0.169053 0.222561
0.403637 0.135075 0.133297
0.387391 0.173320 0.156980
0.324102 0.244474 0.132422
0.320338 0.115903 0.185828
0.366056 0.139524 0.184818
0.352934 0.163795 0.205907
0.362676 0.111076 0.165611
0.302701 0.231378 0.183334
0.311034 0.185598 0.183561
0.408594 0.141525 0.152749
0.322018 0.232497 0.131424
0.355139 0.177651 0.184212
0.324539 0.189850 0.176062
0.366383 0.135812 0.148827
0.396891 0.180008 0.167679
0.385140 0.131101 0.103263
0.279015 0.170615 0.199059
