ply
format ascii 1.0
element vertex 1024
property float x
property float y
property float z
end_header
0.852194 -0.122633 0.021622
0.856594 -0.121159 0.025457
0.861204 -0.102970 0.016643
0.809168 -0.072809 0.020189
0.810412 -0.113027 0.036325
0.852111 -0.078861 0.023231
0.797600 -0.086901 0.022254
0.859877 -0.118175 0.004043
0.809446 -0.132258 0.023519
0.803247 -0.113390 0.034787
0.839774 -0.098430 0.039028
0.833482 -0.140582 -0.002216
0.799209 -0.091885 0.028923
0.842940 -0.075559 0.028266
0.852270 -0.093716 0.035834
0.855468 -0.124651 0.005386
0.847442 -0.084289 0.028445
0.831344 -0.106371 0.037367
0.808919 -0.089370 0.031620
0.843475 -0.088998 0.033442
0.800288 -0.087171 0.019361
0.801623 -0.107182 0.028090
0.823716 -0.085732 0.035245
0.803078 -0.131613 -0.007327
0.858301 -0.079713 0.000974
0.816274 -0.100482 0.039090
0.817106 -0.097753 0.034800
0.843473 -0.092829 0.040217
0.804483 -0.115768 0.027628
0.840484 -0.101698 0.038251
0.795382 -0.116719 0.004482
0.854560 -0.109706 0.034567
0.845308 -0.132427 0.012187
0.853036 -0.105335 0.029573
0.820501 -0.139616 0.012943
0.791099 -0.103340 -0.001133
0.842460 -0.114092 0.030608
0.812624 -0.118496 0.035014
0.854396 -0.100300 0.035393
0.821188 -0.063328 0.009331
0.852365 -0.132609 0.002929
0.847546 -0.131882 -0.004727
0.855021 -0.124554 0.009262
0.843840 -0.119502 0.034064
0.797282 -0.082504 0.005882
0.831277 -0.137003 -0.009259
0.854720 -0.100645 0.028453
0.825771 -0.126940 0.032759
0.795241 -0.106122 0.016572
0.808372 -0.131656 0.005080
0.830919 -0.140581 -0.005647
0.811059 -0.079272 0.024933
0.829964 -0.075810 0.033682
0.845752 -0.103694 0.032623
0.832437 -0.070622 0.018913
0.826416 -0.135177 0.028703
0.804263 -0.126819 0.014093
0.797395 -0.124902 -0.008147
0.804696 -0.073944 0.006975
0.822595 -0.065318 0.006359
0.828006 -0.113345 0.031384
0.808942 -0.095808 0.039665
0.820243 -0.136311 -0.008828
0.822029 -0.101847 0.038630
0.819400 -0.070898 0.024872
0.833782 -0.069102 0.015333
0.854573 -0.124628 0.011375
0.806054 -0.129337 0.010081
0.788826 -0.106736 0.003102
0.862567 -0.092517 0.006628
0.858727 -0.108395 0.029906
0.840387 -0.079468 0.028878
0.801832 -0.122279 0.018178
0.805579 -0.129631 -0.008910
0.838433 -0.138971 0.013174
0.790777 -0.099355 0.013697
0.793015 -0.091288 0.003813
0.801330 -0.122290 0.016844
0.831839 -0.112859 0.035857
0.822144 -0.082361 0.033515
0.806680 -0.091497 0.030880
0.858908 -0.095585 0.028305
0.804126 -0.125873 0.026752
0.848533 -0.124663 0.023580
0.823240 -0.140573 -0.002732
0.857308 -0.089432 0.027071
0.806203 -0.068813 0.007264
0.809452 -0.121526 0.027467
0.804548 -0.132738 0.007917
0.830669 -0.117886 0.030242
0.795051 -0.090914 0.010633
0.824503 -0.119099 0.030054
0.792322 -0.094004 0.003452
0.854221 -0.078960 0.010953
0.792448 -0.118989 -0.005291
0.834531 -0.101110 0.038518
0.860020 -0.117701 0.004963
0.793586 -0.114846 0.016831
0.800003 -0.124648 -0.006677
0.859383 -0.109954 0.019701
0.830999 -0.137364 -0.005562
0.859977 -0.112604 0.015824
0.799368 -0.082768 0.020886
0.864046 -0.105781 0.002277
0.857633 -0.125569 0.014418
0.819883 -0.140079 -0.001107
0.816814 -0.080235 0.035711
0.814313 -0.071869 0.015933
0.804069 -0.126402 0.025936
0.867719 -0.097625 -0.000605
0.855928 -0.121657 0.014812
0.828153 -0.115350 0.030911
0.836535 -0.070681 0.024568
0.822879 -0.140562 0.007210
0.803819 -0.132082 0.008585
0.791886 -0.096044 0.002796
0.814822 -0.103018 0.033755
0.809515 -0.072045 0.019230
0.865586 -0.093148 0.009072
0.789796 -0.102674 -0.003048
0.838109 -0.136295 -0.000620
0.824182 -0.124300 0.033398
0.855325 -0.106491 0.027410
0.808705 -0.126387 0.022886
0.841036 -0.137387 0.017098
0.856854 -0.090625 0.021373
0.845116 -0.113831 0.035344
0.820701 -0.135856 0.014384
0.809519 -0.111789 0.036636
0.795123 -0.093009 0.012730
0.810089 -0.132822 -0.004095
0.798274 -0.114928 0.028029
0.789980 -0.109011 0.008024
0.817160 -0.068202 0.010408
0.815150 -0.098595 0.034523
0.834042 -0.082610 0.039404
0.859932 -0.097700 0.019113
0.860018 -0.124682 -0.004282
0.862393 -0.121234 -0.001811
0.855791 -0.117960 0.029637
0.856708 -0.127378 0.011934
0.816694 -0.135525 -0.006961
0.811414 -0.097792 0.039832
0.811717 -0.121832 0.028141
0.858791 -0.077106 0.005938
0.796755 -0.107848 0.028336
0.858428 -0.123897 0.016024
0.840462 -0.138116 0.014452
0.810534 -0.077448 0.028523
0.791420 -0.091114 0.010971
0.821854 -0.139826 -0.008255
0.843274 -0.126685 0.032401
0.814179 -0.133361 0.026592
0.860006 -0.086303 0.008031
0.853023 -0.127258 0.006358
0.867861 -0.102701 -0.002044
0.859344 -0.107545 0.029083
0.859985 -0.118792 -0.002906
0.804885 -0.079501 0.025113
0.850816 -0.133665 -0.003201
0.824661 -0.133949 0.030088
0.817641 -0.111009 0.032092
0.795612 -0.099583 0.026117
0.858411 -0.102837 0.030864
0.795804 -0.108168 0.017490
0.814910 -0.138628 -0.001917
0.832951 -0.140707 0.006286
0.804521 -0.100592 0.037553
0.811912 -0.094628 0.040473
0.827221 -0.140689 0.010613
0.790236 -0.101977 -0.002898
0.814233 -0.121088 0.029021
0.800215 -0.089157 0.021154
0.866660 -0.105329 -0.005307
0.865484 -0.090435 -0.001836
0.805997 -0.122240 0.024598
0.828959 -0.122212 0.029141
0.800741 -0.076324 0.003297
0.843234 -0.133770 -0.009798
0.857577 -0.116257 0.018920
0.834315 -0.076836 0.028447
0.864426 -0.096319 0.000156
0.830720 -0.063334 0.010748
0.797148 -0.085275 0.009872
0.834306 -0.140306 0.009533
0.837157 -0.089319 0.041178
0.817247 -0.098220 0.034737
0.863482 -0.110103 -0.000872
0.795482 -0.084610 0.003665
0.847082 -0.115407 0.034941
0.833217 -0.093481 0.035436
0.792557 -0.104612 0.006999
0.790275 -0.114052 -0.001248
0.839734 -0.108648 0.036653
0.811716 -0.068830 0.015281
0.813886 -0.134788 0.000686
0.818781 -0.135556 0.025783
0.790492 -0.099213 0.012679
0.791780 -0.108403 0.015944
0.858476 -0.098853 0.022838
0.800077 -0.093426 0.024126
0.855732 -0.119725 0.018916
0.800484 -0.108317 0.026567
0.797994 -0.079900 0.014249
0.802346 -0.072745 0.009690
0.805073 -0.118110 0.034200
0.809710 -0.099307 0.033473
0.830075 -0.089833 0.035839
0.858059 -0.113564 0.020373
0.806865 -0.087373 0.034859
0.843762 -0.134546 0.022522
0.823490 -0.071639 0.027494
0.844401 -0.081327 0.028173
0.812573 -0.137305 0.010167
0.821450 -0.138579 0.019386
0.860587 -0.080487 0.007957
0.826878 -0.079727 0.032202
0.827583 -0.140973 -0.001222
0.862522 -0.111798 0.004005
0.833612 -0.140339 -0.005103
0.809536 -0.066367 0.005689
0.866586 -0.102395 -0.004691
0.817588 -0.075962 0.031402
0.828221 -0.120172 0.034250
0.847377 -0.131157 0.011910
0.788256 -0.102117 0.001664
0.799698 -0.128784 0.004187
0.795356 -0.123223 0.005304
0.823677 -0.136882 -0.008982
0.855378 -0.118499 0.021131
0.829055 -0.140840 0.008979
0.828761 -0.134043 0.030180
0.788450 -0.099637 0.003253
0.860766 -0.117413 -0.006860
0.803503 -0.118656 0.024971
0.836122 -0.071834 0.019821
0.809302 -0.114189 0.030495
0.806935 -0.072075 0.006811
0.866043 -0.106168 0.010584
0.818625 -0.107242 0.032962
0.862039 -0.120896 -0.007953
0.806275 -0.068721 0.007134
0.816986 -0.139200 -0.003821
0.834708 -0.093449 0.040299
0.801149 -0.117946 0.022364
0.866515 -0.110305 0.002417
0.847347 -0.098123 0.038926
0.795895 -0.107250 0.018134
0.793427 -0.116211 0.014474
0.796323 -0.115119 0.012866
0.835555 -0.136901 0.005101
0.830083 -0.137450 -0.005249
0.841348 -0.086692 0.033481
0.831658 -0.126066 0.027745
0.839654 -0.104003 0.033185
0.802486 -0.071080 0.004427
0.834893 -0.114446 0.035420
0.806700 -0.082297 0.030422
0.808915 -0.116100 0.029748
0.808734 -0.130531 0.014247
0.790168 -0.089717 0.004314
0.856992 -0.125902 0.015925
0.863612 -0.109717 0.018332
0.792508 -0.109752 0.001415
0.846129 -0.081920 0.033329
0.835105 -0.104056 0.033356
0.856086 -0.103239 0.026965
0.822414 -0.115413 0.031003
0.814925 -0.130203 0.022839
0.865831 -0.099273 0.011941
0.819604 -0.108222 0.037211
0.826696 -0.087708 0.035782
0.809852 -0.068724 0.012873
0.851052 -0.090915 0.029521
0.814655 -0.079325 0.027876
0.791300 -0.115938 0.003247
0.848441 -0.131327 -0.004161
0.831740 -0.104951 0.037688
0.834824 -0.140329 0.007964
0.837165 -0.132347 0.030556
0.822153 -0.113170 0.031545
0.858991 -0.119043 0.007520
0.795318 -0.106195 0.016782
0.844408 -0.133283 -0.011294
0.867876 -0.101955 -0.001667
0.817344 -0.136612 -0.011504
0.789358 -0.110983 -0.000715
0.850780 -0.068916 0.004492
0.838338 -0.137489 0.020328
0.794189 -0.120982 0.007013
0.819418 -0.140023 0.000367
0.860635 -0.086737 0.006510
0.813043 -0.137820 -0.003643
0.843890 -0.131491 0.018306
0.807244 -0.133220 -0.010318
0.803836 -0.128377 -0.006825
0.863210 -0.115634 0.013633
0.856080 -0.095146 0.032263
0.798356 -0.082884 0.019192
0.791954 -0.091737 0.013266
0.794740 -0.114167 0.007103
0.790951 -0.086946 0.003532
0.831074 -0.140273 0.013420
0.805546 -0.070349 0.010172
0.863397 -0.106130 0.006465
0.813053 -0.112698 0.036336
0.841372 -0.086791 0.039603
0.843967 -0.112898 0.030753
0.862146 -0.080677 0.001251
0.801564 -0.078911 0.019463
0.810691 -0.128213 0.022390
0.805257 -0.079089 0.025042
0.851724 -0.132779 -0.006061
0.839885 -0.138004 -0.011261
0.829116 -0.137735 0.001311
0.798639 -0.121922 0.006458
0.796803 -0.106906 0.020548
0.846530 -0.078287 0.028919
0.838271 -0.064157 0.009134
0.827367 -0.132112 0.031496
0.853970 -0.111715 0.034523
0.802279 -0.125737 0.010188
0.795791 -0.088821 0.010611
0.843656 -0.083204 0.030361
0.836347 -0.070038 0.023529
0.854269 -0.131003 -0.002396
0.837086 -0.136601 0.001353
0.788989 -0.102175 0.006521
0.798299 -0.100661 0.030893
0.819069 -0.063929 0.005309
0.857703 -0.126107 0.012177
0.845429 -0.133164 0.023651
0.847458 -0.075734 0.024394
0.859474 -0.114055 0.026220
0.804940 -0.073033 0.005363
0.804618 -0.113146 0.035860
0.837472 -0.091639 0.035192
0.791540 -0.096187 0.001049
0.793157 -0.100324 0.020841
0.813694 -0.096256 0.034578
0.849056 -0.128347 0.017347
0.796940 -0.119582 0.020969
0.799356 -0.088150 0.018536
0.800363 -0.129496 -0.005051
0.822406 -0.097937 0.034941
0.824573 -0.071001 0.026694
0.808054 -0.097628 0.039441
0.837120 -0.121366 0.029022
0.804361 -0.103152 0.037492
0.853427 -0.131605 0.005371
0.794712 -0.115691 0.002921
0.799454 -0.124039 -0.005679
0.804399 -0.111019 0.036330
0.843635 -0.134193 0.001061
0.838815 -0.135424 -0.011630
0.846290 -0.133918 0.020428
0.812749 -0.072198 0.022667
0.803534 -0.129070 0.019888
0.831912 -0.119685 0.034278
0.845333 -0.103862 0.037646
0.838608 -0.067098 0.016418
0.842800 -0.119960 0.033980
0.835114 -0.063643 0.004994
0.867246 -0.108005 -0.002448
0.834371 -0.135793 0.015912
0.817518 -0.136114 0.001048
0.814077 -0.118866 0.034892
0.859911 -0.081793 0.000293
0.856074 -0.108622 0.026054
0.827948 -0.126723 0.032759
0.858090 -0.098387 0.023459
0.854771 -0.125760 -0.007297
0.801260 -0.122706 0.015735
0.838364 -0.096458 0.034672
0.792401 -0.093472 0.003350
0.844543 -0.116630 0.029599
0.813835 -0.121379 0.028836
0.815467 -0.064143 0.007111
0.863301 -0.093243 0.003970
0.856423 -0.123472 0.005169
0.857653 -0.117366 0.027202
0.803429 -0.095325 0.029323
0.822796 -0.067711 0.012481
0.862102 -0.083012 0.007808
0.841541 -0.134347 0.012160
0.790515 -0.112012 0.007117
0.825728 -0.120585 0.034213
0.808958 -0.083461 0.027655
0.801567 -0.109195 0.034497
0.812490 -0.068348 0.006034
0.860601 -0.085735 0.016546
0.834430 -0.099668 0.034333
0.846523 -0.080117 0.024843
0.792834 -0.119280 0.003503
0.836471 -0.065870 0.005804
0.809546 -0.098252 0.033475
0.839675 -0.138181 -0.010742
0.807154 -0.125938 0.030266
0.857318 -0.120660 0.024597
0.836612 -0.137491 0.021801
0.808584 -0.116977 0.029306
0.853778 -0.075245 0.014431
0.824128 -0.065475 0.016003
0.838229 -0.079415 0.035551
0.821417 -0.123267 0.033700
0.798234 -0.084051 0.020385
0.796351 -0.117542 0.021956
0.800229 -0.076513 0.013116
0.844720 -0.075891 0.027286
0.810942 -0.107650 0.032461
0.838903 -0.075502 0.024560
0.799737 -0.085310 0.024395
0.796372 -0.085402 0.007828
0.797685 -0.121659 -0.001402
0.832207 -0.115816 0.035165
0.814155 -0.117413 0.030283
0.861869 -0.115075 -0.003728
0.848355 -0.133794 0.016328
0.789869 -0.104914 0.010084
0.830296 -0.069779 0.024799
0.811856 -0.136803 0.011536
0.843186 -0.117318 0.034580
0.835830 -0.121109 0.029189
0.839853 -0.100957 0.038437
0.792222 -0.116645 0.007934
0.802320 -0.119505 0.022745
0.845650 -0.136887 0.003835
0.798653 -0.094771 0.029621
0.807671 -0.091180 0.037601
0.832592 -0.129345 0.025983
0.835639 -0.083404 0.039585
0.851902 -0.080993 0.018892
0.860338 -0.113472 0.024805
0.791532 -0.104717 0.001037
0.827324 -0.104927 0.033350
0.789926 -0.110750 0.005401
0.840532 -0.122989 0.028053
0.831520 -0.135769 0.027586
0.860160 -0.118451 -0.002343
0.792676 -0.111412 -0.001244
0.833220 -0.136951 -0.007541
0.846261 -0.095647 0.033338
0.853053 -0.077340 0.019478
0.818541 -0.136127 0.008427
0.816922 -0.082199 0.037465
0.796460 -0.097793 0.019103
0.802718 -0.080976 0.016072
0.862707 -0.090243 0.003136
0.793181 -0.091380 0.004600
0.836859 -0.081490 0.037888
0.816311 -0.126861 0.026500
0.863835 -0.088400 -0.001451
0.835535 -0.140315 -0.000596
0.789647 -0.110502 0.003815
0.811932 -0.067940 0.013546
0.827989 -0.136514 0.015252
0.797890 -0.082376 0.007424
0.789603 -0.099878 0.009337
0.840465 -0.116804 0.034756
0.845558 -0.131098 0.016805
0.835633 -0.088599 0.041364
0.859492 -0.079781 0.009939
0.866000 -0.111678 0.004221
0.795526 -0.078542 0.004175
0.825228 -0.071855 0.028155
0.853749 -0.072039 0.007004
0.860199 -0.092134 0.023864
0.800724 -0.129045 0.010004
0.825690 -0.071399 0.027506
0.797130 -0.082692 0.016507
0.842428 -0.109133 0.031848
0.844269 -0.065478 0.006034
0.851676 -0.069764 0.005190
0.805521 -0.133173 0.010201
0.850685 -0.089933 0.035510
0.858433 -0.079717 0.000842
0.812861 -0.066691 0.011579
0.794531 -0.087221 0.004416
0.853117 -0.103275 0.036550
0.830389 -0.123943 0.033336
0.843935 -0.127229 0.032162
0.844849 -0.133507 -0.003279
0.816925 -0.133475 0.018531
0.837971 -0.128537 0.032111
0.830908 -0.067098 0.019666
0.823580 -0.136721 -0.010330
0.811049 -0.074962 0.018351
0.838313 -0.063467 0.006764
0.814444 -0.133231 0.027026
0.861690 -0.091282 0.019814
0.864756 -0.100331 -0.000704
0.864735 -0.104891 -0.003743
0.852792 -0.075383 0.016495
0.802741 -0.125590 0.012803
0.864685 -0.092438 0.012007
0.839156 -0.139119 -0.005378
0.803395 -0.115453 0.034104
0.817714 -0.139596 0.000699
0.799052 -0.091023 0.028130
0.822937 -0.067953 0.013086
0.823450 -0.139490 0.016849
0.806172 -0.114653 0.029176
0.805525 -0.072367 0.004915
0.794832 -0.106494 0.024847
0.819234 -0.095588 0.035228
0.823198 -0.088029 0.041743
0.866619 -0.102164 0.008775
0.856660 -0.079725 0.006217
0.857883 -0.126484 0.009466
0.823866 -0.065988 0.017092
0.791104 -0.086402 0.001104
0.865961 -0.111826 0.004210
0.802834 -0.082130 0.025568
0.797044 -0.080871 0.013688
0.853520 -0.127571 0.021769
0.800759 -0.122508 0.014533
0.862301 -0.105145 0.023506
0.809454 -0.103069 0.033005
0.863292 -0.100984 0.008498
0.816457 -0.128572 0.025255
0.838980 -0.102276 0.033588
0.854863 -0.083183 0.016735
0.820294 -0.069303 0.014939
0.847711 -0.076135 0.017151
0.832242 -0.136667 0.025805
0.812388 -0.132909 0.013644
0.792138 -0.094864 0.016021
0.825680 -0.079505 0.031925
0.836208 -0.134691 0.027957
0.817283 -0.071804 0.018166
0.834945 -0.076578 0.027922
0.851433 -0.131645 0.015732
0.795143 -0.093021 0.012801
0.820341 -0.065191 0.013926
0.846329 -0.130177 0.027896
0.792949 -0.113531 0.016086
0.859277 -0.119950 -0.001802
0.855164 -0.129486 -0.008760
0.806501 -0.129311 0.024979
0.804786 -0.075068 0.009532
0.800705 -0.124109 0.009198
0.848881 -0.068522 0.003634
0.803782 -0.077445 0.020744
0.864895 -0.098297 0.015110
0.792863 -0.119250 0.003916
0.859562 -0.094115 0.018017
0.836282 -0.136242 -0.008703
0.809500 -0.081728 0.026384
0.836366 -0.069482 0.022508
0.797388 -0.076672 0.006358
0.865794 -0.111055 0.007134
0.816323 -0.083542 0.038209
0.792312 -0.115584 0.010662
0.864255 -0.113416 0.012240
0.852789 -0.074981 0.015738
0.808807 -0.070874 0.016164
0.804228 -0.080789 0.025870
0.854279 -0.098558 0.035257
0.840369 -0.134666 0.013131
0.804871 -0.112769 0.029120
0.812657 -0.135830 0.018581
0.790984 -0.088529 0.006465
0.811327 -0.137113 0.005233
0.796319 -0.105298 0.019724
0.791214 -0.115554 0.003813
0.840189 -0.115925 0.030322
0.846558 -0.069648 0.004346
0.794160 -0.111080 0.009242
0.795466 -0.095748 0.015545
0.789673 -0.093140 0.005958
0.852938 -0.102619 0.029941
0.848977 -0.069813 0.011023
0.804577 -0.132537 0.009671
0.813631 -0.073218 0.017872
0.822920 -0.066465 0.017866
0.862980 -0.096168 0.019928
0.833982 -0.140568 -0.001142
0.829609 -0.078293 0.030880
0.804302 -0.114188 0.035309
0.806359 -0.134383 0.003320
0.866436 -0.104323 0.009341
0.860863 -0.110043 0.025492
0.860741 -0.113365 0.011802
0.827432 -0.065230 0.007186
0.853326 -0.072777 0.002415
0.867097 -0.108103 -0.005406
0.826568 -0.129202 0.026288
0.791902 -0.093101 0.000567
0.867140 -0.106002 0.003698
0.845942 -0.083252 0.028799
0.831053 -0.140971 0.004000
0.858777 -0.114189 0.017975
0.834300 -0.075819 0.032947
0.849352 -0.076918 0.016200
0.793332 -0.109381 0.007158
0.861338 -0.115979 -0.000760
0.805951 -0.121122 0.033110
0.819507 -0.071176 0.018326
0.789013 -0.098703 0.006279
0.839740 -0.134736 0.013989
0.846707 -0.134962 0.015748
0.853883 -0.131116 -0.005486
0.794827 -0.113965 0.008000
0.814794 -0.066256 0.012528
0.857936 -0.075792 0.005186
0.845031 -0.118291 0.034318
0.821067 -0.076143 0.027228
0.852397 -0.130460 0.017054
0.809420 -0.069056 0.004345
0.842185 -0.112021 0.035821
0.800001 -0.104445 0.033390
0.850570 -0.072639 0.004666
0.826799 -0.122907 0.033655
0.829045 -0.137519 -0.004787
0.807533 -0.135072 -0.003497
0.811245 -0.135706 0.016102
0.861403 -0.092721 0.011310
0.801634 -0.127966 0.017656
0.843711 -0.085151 0.031678
0.826699 -0.083826 0.040620
0.788680 -0.101556 0.004804
0.799584 -0.091558 0.029287
0.827041 -0.137605 -0.002952
0.803090 -0.131750 -0.006349
0.849491 -0.072017 0.015195
0.854184 -0.126278 -0.008548
0.804257 -0.128176 0.023334
0.809722 -0.071983 0.019341
0.853330 -0.095372 0.035414
0.837664 -0.071900 0.026065
0.797657 -0.082053 0.006203
0.826990 -0.062036 0.006888
0.818783 -0.063033 0.006631
0.795876 -0.090324 0.012469
0.818999 -0.133634 0.029040
0.814890 -0.133890 0.014642
0.842052 -0.133435 0.015412
0.824148 -0.137078 -0.007525
0.864196 -0.107333 0.017533
0.863824 -0.108722 -0.000776
0.853276 -0.128673 0.019842
0.845568 -0.117957 0.028945
0.863313 -0.117592 0.008990
0.796281 -0.118642 0.003924
0.819335 -0.097677 0.039667
0.814121 -0.138328 0.005472
0.845425 -0.132821 -0.008407
0.847266 -0.122892 0.033170
0.849980 -0.078219 0.025141
0.805820 -0.101113 0.038433
0.822464 -0.117196 0.030567
0.852656 -0.130416 -0.010681
0.843259 -0.080530 0.028184
0.812233 -0.074811 0.019357
0.830440 -0.118367 0.034617
0.841202 -0.134633 0.011210
0.807729 -0.089400 0.030790
0.808918 -0.132013 0.005025
0.867697 -0.100455 0.001216
0.808550 -0.134323 0.015360
0.812030 -0.069394 0.008091
0.837113 -0.129446 0.025152
0.835343 -0.140376 0.004938
0.861525 -0.100935 0.015470
0.824819 -0.063193 0.010349
0.850565 -0.078870 0.025309
0.859444 -0.100840 0.029001
0.820353 -0.101946 0.038648
0.799895 -0.113462 0.023699
0.851136 -0.132714 0.011680
0.858690 -0.126024 0.006165
0.847479 -0.114942 0.035040
0.791541 -0.094801 0.000103
0.851229 -0.107042 0.036759
0.860878 -0.100043 0.017307
0.864247 -0.096390 0.001495
0.856888 -0.080277 0.006722
0.841405 -0.096942 0.034297
0.828955 -0.071712 0.028111
0.792936 -0.094882 0.006738
0.864631 -0.094732 0.014054
0.864245 -0.108557 0.016819
0.840282 -0.136726 0.020665
0.797486 -0.084693 0.009957
0.802167 -0.080188 0.022196
0.799334 -0.124494 0.019285
0.825633 -0.085767 0.035376
0.863330 -0.109703 0.001993
0.811270 -0.119496 0.034816
0.859121 -0.089486 0.023881
0.799119 -0.100794 0.025200
0.829491 -0.091553 0.040860
0.860544 -0.117505 0.020606
0.842168 -0.126773 0.032421
0.819064 -0.089493 0.041502
0.798798 -0.120174 0.024560
0.805353 -0.074368 0.009119
0.814265 -0.067309 0.005407
0.856655 -0.127406 0.012074
0.847187 -0.093963 0.032864
0.849305 -0.126606 0.020307
0.796226 -0.085780 0.007942
0.795878 -0.113171 0.013851
0.853015 -0.096046 0.035897
0.862467 -0.105213 0.011636
0.857889 -0.075323 0.003798
0.808266 -0.127071 0.021490
0.799972 -0.107484 0.033077
0.809423 -0.095287 0.039815
0.863964 -0.094261 0.015902
0.841208 -0.087878 0.040135
0.823017 -0.138438 0.020850
0.861058 -0.099820 0.025809
0.815589 -0.138501 -0.006647
0.865407 -0.112351 0.007463
0.815363 -0.120302 0.029453
0.833061 -0.133880 0.021140
0.836102 -0.067004 0.009140
0.854422 -0.099772 0.035302
0.860402 -0.113857 0.012558
0.826374 -0.108300 0.037034
0.863248 -0.117054 0.010723
0.824712 -0.074155 0.031373
0.799325 -0.086225 0.016374
0.825429 -0.140215 0.013876
0.848574 -0.078797 0.027522
0.863378 -0.119411 -0.001320
0.837921 -0.090613 0.035117
0.834301 -0.135515 0.016922
0.860810 -0.102136 0.017844
0.846142 -0.115787 0.034872
0.862555 -0.115754 0.016221
0.803411 -0.131767 -0.008059
0.824863 -0.083429 0.034464
0.842254 -0.132544 0.017869
0.812960 -0.067207 0.004667
0.856201 -0.116148 0.021901
0.790346 -0.107202 0.011132
0.800721 -0.096970 0.026677
0.845941 -0.077132 0.021080
0.812370 -0.134244 0.022885
0.837826 -0.136233 -0.003915
0.865712 -0.106264 0.012080
0.825403 -0.117270 0.030502
0.795591 -0.107093 0.026307
0.844206 -0.136765 0.013228
0.814356 -0.130149 0.031007
0.845544 -0.128077 0.030887
0.823874 -0.139544 -0.011416
0.843712 -0.134943 0.021538
0.802655 -0.131682 -0.002708
0.801770 -0.126409 0.001577
0.789700 -0.108417 -0.004252
0.812701 -0.135703 0.019125
0.810230 -0.072747 0.021213
0.803222 -0.127875 -0.006193
0.809985 -0.127553 0.030973
0.840572 -0.067001 0.014669
0.855489 -0.124724 0.022787
0.805211 -0.077818 0.015366
0.798383 -0.110725 0.030163
0.861633 -0.092809 0.010591
0.805854 -0.131904 0.017459
0.857880 -0.107381 0.031347
0.816113 -0.065032 0.010558
0.860152 -0.113891 0.024932
0.821535 -0.140479 0.003487
0.817191 -0.078891 0.028907
0.790396 -0.110013 0.009144
0.801788 -0.075128 0.013563
0.854757 -0.125666 -0.009483
0.851964 -0.120474 0.032132
0.838942 -0.139517 0.004336
0.822105 -0.118295 0.030286
0.810550 -0.113420 0.030994
0.792041 -0.105323 0.003858
0.831317 -0.063110 0.009956
0.844797 -0.094802 0.039751
0.796763 -0.120320 -0.001851
0.861943 -0.091258 0.019164
0.830162 -0.089004 0.035819
0.833376 -0.062613 0.007541
0.819243 -0.139585 -0.006095
0.802286 -0.130637 0.009521
0.819982 -0.136603 -0.004570
0.795256 -0.116729 0.003505
0.809216 -0.096614 0.039842
0.804197 -0.121693 0.023126
0.827054 -0.138036 0.023166
0.852169 -0.119428 0.024641
0.821705 -0.108739 0.037041
0.842809 -0.072721 0.016505
0.853757 -0.106208 0.035849
0.804667 -0.074671 0.017577
0.799780 -0.119001 0.018250
0.803499 -0.091441 0.027797
0.804156 -0.084954 0.030173
0.846349 -0.066389 0.005502
0.844819 -0.115137 0.035049
0.790875 -0.115753 -0.002242
0.833603 -0.062311 0.005976
0.861338 -0.121279 0.009908
0.855335 -0.121763 0.027008
0.796190 -0.124940 0.000647
0.853987 -0.128880 0.017273
0.800372 -0.116127 0.022646
0.789410 -0.091889 0.003131
0.859999 -0.088122 0.010729
0.863185 -0.104423 0.008563
0.829729 -0.140086 0.015210
0.862209 -0.080824 0.001575
0.844702 -0.078591 0.030871
0.820265 -0.073395 0.022689
0.824072 -0.137772 0.023256
0.822397 -0.137255 -0.000445
0.793282 -0.107787 0.008453
0.841201 -0.086638 0.039599
0.852651 -0.110229 0.035769
0.855518 -0.108643 0.026686
0.853678 -0.077225 0.008673
0.807541 -0.076095 0.015897
0.801811 -0.123386 0.026342
0.813090 -0.074114 0.018988
0.803489 -0.093276 0.028653
0.857964 -0.086102 0.013739
0.857695 -0.089358 0.026365
0.839867 -0.094561 0.034734
0.799141 -0.128286 0.003150
0.825798 -0.129473 0.032179
0.848216 -0.135081 0.009225
0.792024 -0.101973 0.005056
0.807229 -0.113340 0.036327
0.801438 -0.095910 0.027270
0.843583 -0.070094 0.018552
0.827873 -0.119264 0.029961
0.814909 -0.080020 0.034543
0.809199 -0.109231 0.031798
0.808710 -0.132048 0.022890
0.830282 -0.124970 0.033104
0.835614 -0.136944 0.001521
0.810114 -0.078606 0.023068
0.830259 -0.133555 0.030609
0.856737 -0.093154 0.030447
0.797659 -0.126719 0.001623
0.840023 -0.136653 0.021193
0.860901 -0.111167 0.024898
0.857999 -0.086749 0.014531
0.806383 -0.133911 -0.007934
0.828669 -0.068871 0.015961
0.822465 -0.064693 0.013631
0.855137 -0.122970 0.014352
0.861960 -0.114904 -0.004375
0.849996 -0.116000 0.028156
0.864165 -0.110842 0.015549
0.809134 -0.086020 0.035785
0.860242 -0.124486 -0.002627
0.808008 -0.090437 0.031444
0.861496 -0.099313 0.015149
0.853183 -0.089044 0.032467
0.865252 -0.110652 0.010853
0.828496 -0.137589 0.007188
0.862697 -0.115723 0.015706
0.812385 -0.093587 0.034293
0.859159 -0.089761 0.024051
0.809655 -0.131038 0.014684
0.845785 -0.135926 -0.009533
0.855843 -0.127231 0.016132
0.833968 -0.140422 0.008769
0.825097 -0.123581 0.033540
0.859159 -0.082296 0.015243
0.844332 -0.137338 0.007559
0.820780 -0.067925 0.020090
0.798003 -0.118484 0.024730
0.796744 -0.108347 0.019937
0.855195 -0.112185 0.033262
0.815711 -0.135169 -0.007320
0.801177 -0.076534 0.014989
0.858008 -0.119625 0.011286
0.821679 -0.123599 0.028687
0.848078 -0.079693 0.022489
0.795400 -0.091852 0.012565
0.789377 -0.094907 -0.001118
0.795696 -0.103562 0.026817
0.816375 -0.071763 0.024631
0.818515 -0.077546 0.027978
0.805714 -0.129821 -0.009488
0.860844 -0.117245 -0.004301
0.795709 -0.106879 0.017736
0.800786 -0.076515 0.003793
0.855756 -0.129672 -0.001157
0.843881 -0.132476 0.026669
0.802508 -0.131555 0.002021
0.851212 -0.129326 -0.001854
0.823281 -0.138470 0.020869
0.826207 -0.076392 0.034336
0.840127 -0.134875 -0.011103
0.795536 -0.091315 0.021956
0.829420 -0.092669 0.040600
0.824900 -0.136817 -0.010807
0.796262 -0.080191 0.010642
0.857982 -0.121150 0.005655
0.796891 -0.077368 0.006502
0.826157 -0.066683 0.010879
0.847228 -0.135192 -0.009336
0.840730 -0.122680 0.028143
0.800436 -0.091484 0.030440
0.808788 -0.092051 0.032480
0.827763 -0.082959 0.034359
0.832551 -0.077625 0.029813
0.799512 -0.101537 0.025862
0.819710 -0.136878 0.023392
0.860344 -0.119779 0.017900
0.859855 -0.123651 0.010118
0.859007 -0.125515 -0.007475
0.840671 -0.075237 0.022948
0.859976 -0.121664 0.015454
0.867520 -0.103808 0.002090
0.814271 -0.131462 0.029475
0.838684 -0.089835 0.041018
0.804046 -0.073040 0.003739
0.856640 -0.086913 0.017953
0.810885 -0.077733 0.029193
0.795498 -0.117860 0.019198
0.853358 -0.127505 0.022239
0.811540 -0.077978 0.030049
0.794431 -0.116390 -0.004340
0.863936 -0.109036 -0.003684
0.809003 -0.135399 -0.008370
0.819340 -0.136388 -0.011525
0.822606 -0.131338 0.024283
0.791764 -0.099283 0.003521
0.846897 -0.086053 0.036147
0.808542 -0.066899 0.005582
0.847780 -0.095167 0.032721
0.830014 -0.137630 0.005451
0.834130 -0.077488 0.029286
0.853745 -0.078981 0.012049
0.852979 -0.094668 0.029153
0.825308 -0.113109 0.035948
0.861220 -0.098105 0.015585
0.855870 -0.125680 0.020060
0.837340 -0.134665 0.017283
0.818041 -0.069242 0.013428
0.848181 -0.131378 0.005791
0.801800 -0.123530 0.026146
0.798747 -0.075252 0.006920
0.794339 -0.117688 0.015622
0.810027 -0.088997 0.038161
0.791595 -0.117405 -0.001436
0.843318 -0.093591 0.040068
0.857308 -0.118395 0.026948
0.828794 -0.070959 0.026914
0.807400 -0.119382 0.027639
0.817807 -0.135020 0.014501
0.809579 -0.132608 -0.001372
0.821894 -0.136452 -0.010538
0.863239 -0.101999 0.008787
0.796050 -0.082514 0.001981
0.862107 -0.114831 0.018970
0.804379 -0.112717 0.035845
0.793031 -0.099760 0.009279
0.801410 -0.130229 0.006620
0.799435 -0.089251 0.027450
0.852935 -0.083870 0.021214
0.803646 -0.073905 0.004699
0.861023 -0.095495 0.014775
0.799588 -0.109749 0.024946
0.867627 -0.102246 0.001829
0.851135 -0.133532 0.003044
0.840747 -0.134777 -0.009866
0.807338 -0.119475 0.027554
0.802495 -0.130488 0.011457
0.798932 -0.092415 0.028820
0.853652 -0.072281 0.002604
0.798065 -0.083032 0.018818
0.821549 -0.126673 0.032919
0.864955 -0.091137 0.009580
0.802967 -0.082121 0.025742
0.856654 -0.123680 -0.005890
0.856686 -0.118418 0.027971
0.798079 -0.117802 0.014989
0.855630 -0.078490 0.006451
0.852340 -0.115374 0.034409
0.820435 -0.104622 0.033540
0.797185 -0.117388 0.012319
0.809918 -0.116882 0.029754
0.831979 -0.140260 -0.007607
0.820289 -0.110012 0.036780
0.838126 -0.072735 0.020366
0.789224 -0.110690 -0.003388
0.857265 -0.118094 0.017328
0.810293 -0.087491 0.037539
0.790061 -0.091176 0.005745
0.854878 -0.125536 -0.008867
0.816011 -0.139082 0.003545
0.863036 -0.091406 0.016336
0.842637 -0.135940 0.020103
0.816156 -0.076899 0.031815
0.832198 -0.098360 0.039208
0.794547 -0.098760 0.014239
0.849907 -0.129838 -0.010206
0.801602 -0.083387 0.017391
0.859982 -0.105139 0.028289
0.861073 -0.087693 0.017746
0.836691 -0.136550 -0.003587
0.842101 -0.088698 0.033845
0.866204 -0.100770 -0.004357
0.832142 -0.112526 0.031478
0.807268 -0.110272 0.037041
0.805039 -0.111858 0.036437
0.841933 -0.107808 0.032199
0.799719 -0.078823 0.005842
0.818370 -0.094570 0.035282
0.858193 -0.117442 0.015395
0.802232 -0.123900 0.026414
0.816280 -0.078748 0.028242
0.807648 -0.103501 0.032426
0.827985 -0.088984 0.041489
0.820189 -0.097486 0.034985
0.791912 -0.105579 0.017434
0.812346 -0.078024 0.024427
0.807114 -0.134298 -0.008414
0.855243 -0.077879 0.006149
0.812323 -0.125651 0.026022
